0.129514964	-0.920354965	-0.042860401
-0.421533349	-0.394768725	-0.895724513
-0.312700171	-0.999122488	0.479791971
0.253263872	-0.941531934	0.050154876
-0.029817052	0.916120844	-0.81019569
0.225080663	-0.046680606	0.003652844
-0.041572444	-0.177173222	0.420075518
0.878885609	-0.826034047	0.156547933
-0.159336244	-0.690522724	0.904277608
-0.44868009	0.213377645	0.250882922
0.936580813	-0.99750959	-0.163892874
-0.602305149	-0.195735191	0.283766586
0.207522424	0.150490905	-0.05532481
0.511856388	0.780425321	-0.439838215
-0.786777917	-0.787121568	-0.082430731
-0.247343952	-0.065909159	-0.784749951
-0.680554084	0.850770563	-0.528764023
-0.374558433	0.411711573	0.091040535
0.191639732	-0.315957008	0.566221499
0.143028231	-0.869411869	-0.264955789
-0.161086673	0.213876858	-0.996352773
-0.568650816	0.160483021	-0.229475437
-0.383453128	-0.365223497	0.030604013
0.973740388	-0.560421998	-0.976150188
0.316714738	-0.976212413	-0.159297849
0.094459934	0.735438845	-0.968645018
0.465703901	-0.602187771	0.455265251
-0.558394951	-0.013544295	0.259115982
0.466644417	0.868100196	0.891977585
0.796622885	-0.616808075	0.22343439
-0.322469126	0.106481925	-0.891013806
0.365257084	0.442639467	-0.926847567
-0.884182503	-0.253964892	0.983554243
0.079189379	-0.857301349	0.168609521
0.82627234	-0.437259842	0.511959412
-0.958996624	-0.640532023	-0.564259435
-0.084090509	-0.008631003	0.335785819
-0.378746098	0.041648076	0.559183935
-0.911180328	-0.406861638	-0.643588609
0.809849918	-0.272328448	-0.184505719
-0.691281656	-0.221363715	-0.339234846
0.263213067	0.946965299	-0.359925472
0.783350598	-0.800690131	0.673418233
0.045605904	0.72135622	-0.776710212
0.969776379	-0.457941417	-0.482779614
-0.001757623	0.106435751	-0.281706659
-0.303721756	0.601779561	0.032926988
0.484379218	0.405395676	-0.139937351
0.152027648	0.000526451	-0.409841645
-0.029061924	0.730390143	0.832078347
-0.940904736	0.059767194	0.146928035
-0.728722092	0.747719776	0.655214411
-0.670651346	-0.618087928	0.637096431
0.656487688	0.444629744	-0.652330499
0.831022645	-0.80101469	-0.213927982
-0.559452845	0.638341353	0.739135569
0.177962771	0.560502607	-0.866916509
0.087718715	0.923318425	0.107548233
-0.295076172	0.811985363	-0.373181
0.087223815	0.218108646	0.338169033
0.355095901	0.757133412	0.323186692
0.962710318	-0.247933108	0.593487811
0.463045343	-0.110136364	0.980390673
-0.194927752	-0.268227333	0.542040199
-0.184838339	0.241376231	-0.247714968
-0.493815694	0.668354328	-0.061881023
-0.577917587	0.271400237	0.883714402
-0.522447913	0.086491258	-0.032486726
-0.938193003	-0.331840054	0.082874861
0.058345242	-0.801914123	-0.47177896
-0.005927624	-0.365352896	0.497329562
0.916233273	-0.950015733	-0.944044265
-0.197323905	0.954580777	-0.667456451
-0.57941544	-0.068632509	0.079147236
-0.55609058	-0.461968145	0.130970744
0.650354505	0.632029415	-0.578923439
0.359449098	0.901836695	-0.515772031
-0.361710053	-0.097286429	-0.433679506
0.464175927	-0.19035995	-0.807455674
0.526994785	-0.222564161	0.532235747
-0.078330393	-0.560192544	-0.539122912
0.552357369	0.945617564	-0.595471513
-0.723013665	-0.259101487	0.109957044
-0.464993406	-0.035533936	-0.752661705
-0.523545546	0.531262564	0.122729764
-0.890566918	0.42518991	0.471886157
0.701819159	-0.956675211	-0.50896187
0.805683678	0.94593576	-0.685314925
0.420814722	0.651509484	0.16892503
-0.461930669	-0.73520833	0.363371882
-0.853807562	-0.584834804	-0.362737612
-0.951437006	-0.680686949	0.848570065
0.01097843	-0.57810808	0.824408422
-0.318495572	0.408502466	0.492585833
-0.030858018	-0.47872842	0.132440878
0.524660786	-0.535486786	-0.39404034
0.670930227	0.383532041	0.766204812
-0.215530131	-0.858726157	0.074709894
0.677722003	-0.531786526	0.412941859
0.248706606	0.992787569	0.941688911
0.106168255	-0.480879068	0.329729498
0.366246531	-0.627977514	-0.254648588
-0.218284361	0.261663031	-0.450614577
-0.542104686	0.845313157	0.700933161
-0.769804663	-0.710273825	-0.523681734
-0.306348141	-0.111518676	0.814364051
-0.231991232	0.24660093	0.575178136
-0.457127119	-0.75390196	-0.650951581
-0.805504075	-0.257882869	-0.09565147
0.363907158	-0.121059237	-0.231164489
-0.394324948	0.81338613	-0.196246071
-0.386675812	0.582239106	-0.81171525
-0.79728756	0.477945659	0.656928141
-0.345652354	0.952011879	-0.489172798
0.727561032	0.038290548	0.489320299
0.509065813	0.832788276	0.173078895
0.810738037	0.841325814	-0.876984214
0.974045856	0.508559953	0.623413672
0.71489473	-0.848261062	0.47337418
0.035509194	0.994954127	-0.38377797
-0.953344058	-0.043680687	-0.99789496
0.926543513	-0.839674734	-0.538200711
0.345740741	0.035465856	0.667530061
-0.712828581	0.911311142	-0.333561562
-0.748238081	-0.78010359	-0.307284484
-0.567986707	-0.684299387	0.185445102
0.856672029	-0.475607135	0.850870265
0.762969824	0.176281073	0.810163871
-0.647277343	-0.858555039	0.319245382
0.721128533	-0.001919053	0.706152345
0.132333893	0.763600559	-0.346527462
-0.382502996	-0.44718549	-0.186221358
0.750483834	-0.17018169	-0.554566423
-0.196043204	0.588593399	0.754434408
0.844796974	0.686825222	0.123223179
0.050748643	0.204831409	-0.87982676
-0.400111863	-0.361060934	0.253932931
-0.084150118	0.426199579	-0.18784564
-0.411843165	-0.076855875	-0.953380827
0.157238629	-0.290233237	0.354178154
0.47102413	0.128121904	-0.672601955
0.206742774	0.65294101	0.163596599
0.219578709	-0.320765649	-0.209157878
-0.318854426	0.723867136	-0.961755732
0.678729339	-0.570366667	0.943339285
-0.56487426	0.424634482	-0.945546854
0.410226873	0.885074864	-0.738538069
0.089145292	0.47930994	0.611632095
-0.508978769	-0.590195902	-0.943325143
0.500108116	-0.769941841	-0.145425091
-0.450370768	0.793409111	0.872988386
-0.106567272	0.961134897	0.158440064
0.805845604	0.800974385	-0.207516696
-0.739052838	0.087773303	0.033935809
0.022003967	0.55537464	0.954539766
0.331837437	-0.491416076	0.656154502
-0.429635242	-0.882368789	-0.141062561
0.290641871	-0.835760929	0.655480139
-0.336870371	-0.274372112	0.67638035
-0.115182945	0.927677703	0.757702629
-0.894250208	0.766692004	-0.378495077
-0.788257173	-0.12735675	-0.84347328
0.133023741	0.562572504	-0.442118475
0.848522689	0.510399972	-0.932710849
0.830587778	-0.647869611	0.538236136
-0.594954975	-0.273771783	-0.002147275
0.120647351	0.206653892	-0.578432145
0.467915006	-0.711868338	0.891024413
0.480306104	-0.512076225	0.95828528
-0.408465697	0.485387969	0.728162068
-0.358189114	-0.278474076	0.916515406
0.727083738	0.696719405	-0.92968587
0.850704096	-0.198443953	0.248175078
0.179424561	-0.298137142	-0.532733971
-0.154929449	0.495220987	0.359705917
-0.863289788	-0.809311814	0.315706624
0.04169374	-0.230884124	0.81790592
0.915347982	-0.725927628	-0.723227916
0.619063445	0.255992363	-0.669794481
-0.056829373	-0.542194842	0.638878184
-0.816607683	0.048561071	0.633027418
0.757317259	0.575852994	0.679949018
0.938620799	-0.890202054	-0.349699588
0.365704821	0.221567997	-0.485390444
-0.482971875	-0.595630257	-0.361347593
-0.942456116	-0.746505683	-0.228080397
-0.852383461	-0.364446251	-0.397123442
-0.038320486	-0.520529689	-0.319779243
0.153018013	-0.839070162	-0.970953703
0.331992222	-0.139141862	0.586171932
0.783393732	-0.326559777	-0.850815111
0.771024413	0.499454967	-0.447728049
0.116492284	-0.292165037	-0.738497057
-0.128921565	0.616316145	-0.671417419
-0.279374145	-0.176907069	0.118909509
-0.836229737	-0.460278103	-0.922803656
0.441979317	0.526739734	-0.623661794
0.590075059	0.176167017	0.940453605
-0.79811204	0.91041171	0.945005215
-0.552792519	-0.253818593	0.973827361
-0.735378034	0.895560466	0.080541781
-0.129517651	-0.866818222	0.502973501
-0.70251233	0.424658735	0.241199738
0.658792271	0.899222542	-0.349609362
0.921401474	0.757736569	0.752857572
0.860942919	0.096198837	-0.099786597
-0.573330693	-0.199663632	-0.846795948
0.372981173	-0.538493521	0.101654192
0.85774258	-0.134769644	0.749734307
-0.692663897	0.624948505	0.404571833
-0.178038148	0.425396666	0.145661475
0.614776927	0.502390709	-0.284766003
-0.380769255	0.694533685	0.669924022
-0.5281125	-0.098794181	0.467638954
-0.201714649	0.247348194	0.793752762
-0.207023211	-0.358183528	0.162242359
-0.140250879	-0.903191501	0.847369407
-0.180350934	-0.225234457	-0.501110432
-0.768958263	-0.074403083	0.170402659
0.530143365	0.75848539	-0.895036504
-0.591029009	0.72621259	-0.687997101
0.926585939	-0.89179586	0.345732963
0.714215913	-0.488078983	-0.145266701
-0.226584242	-0.409801269	0.38562704
-0.196371016	0.071776697	-0.389954074
0.665323057	-0.901010094	-0.098725875
0.133056692	-0.636536902	0.455320052
0.483750605	-0.813654122	0.355521293
-0.085505842	0.639872439	-0.467025332
0.692452898	-0.84351005	0.26864325
0.988184341	-0.410067493	-0.82256713
0.842276158	-0.454520957	-0.295796496
0.082263784	0.521234386	-0.097394757
0.837601513	0.861640828	0.929666072
0.383883753	-0.425653556	-0.59060397
-0.103073344	-0.529593735	0.255431632
0.81056904	0.383469109	-0.015111994
0.605690184	-0.177282328	-0.020059234
-0.946188902	0.004422053	-0.767788718
0.190137496	-0.966654528	-0.536586257
-0.421834149	-0.551789637	-0.739400025
-0.471263201	0.676879987	-0.332846966
-0.771616963	0.796200746	0.285406778
0.191590235	0.982507027	0.600251799
-0.664771589	0.255248564	-0.83294101
0.169272994	0.194905408	-0.414814757
-0.461656667	0.460564055	-0.072239495
0.27805024	0.225589634	-0.703684986
-0.298433913	-0.814076968	-0.275442522
-0.727761848	-0.444970708	-0.007433061
-0.336624158	-0.529780339	0.927752656
0.901676183	-0.443394934	-0.037493666
-0.681640121	0.428103873	0.456489597
-0.322186639	-0.003149851	-0.059843186
-0.428136117	-0.758018703	-0.865298662
0.997682123	-0.968244798	0.02239208
-0.225006417	0.095361488	0.45084891
-0.861810532	-0.96104156	-0.164320741
0.238786261	0.015436497	0.985639485
0.591580194	0.527475402	0.594070533
0.299047252	-0.690426488	-0.968292881
0.223930987	0.370997755	0.288365006
-0.194201064	0.738658983	-0.280394209
-0.903107356	0.634233308	0.747364811
0.71703159	-0.637088087	-0.310442963
-0.984400643	-0.79391681	0.668619703
-0.072125369	-0.741960438	-0.654756209
-0.228156906	0.7680956	-0.56115109
0.197615938	0.873148191	-0.841791087
0.743448178	-0.51533978	-0.477021549
-0.69339702	-0.386112182	0.593157029
0.775139034	-0.150483127	-0.773728367
-0.459900652	-0.732643674	0.664838198
0.914661387	-0.052374438	0.552987255
0.644136683	0.895819265	0.778458873
0.485646131	0.148622815	0.221379625
0.592241404	-0.4980134	-0.600511022
-0.642563029	-0.440138097	0.764820308
0.440545175	-0.812855097	0.551231947
0.217587442	0.570012197	0.339185985
-0.535908784	0.363616681	-0.268073114
-0.741707296	-0.081297813	0.391810426
-0.497611483	-0.518877477	0.609864838
-0.136561863	-0.988313034	-0.959014301
-0.73172515	-0.917858898	-0.507299334
0.883460553	0.602228783	-0.099728402
-0.238916863	-0.172487263	-0.978170376
0.549769096	-0.390421185	-0.744015273
0.399578851	-0.866348	-0.303099295
0.350521027	0.054787993	-0.345984974
0.464963849	0.390418781	0.713724478
-0.574360515	-0.60232509	-0.570882285
-0.711676006	0.186875214	0.760257385
-0.61348668	-0.63306447	-0.031035486
0.861415263	-0.683578002	0.914938571
0.44910633	0.035746002	-0.931319274
-0.845698527	0.729813149	0.112608531
0.023450031	-0.534409376	-0.776296558
0.958636709	0.544972193	0.392424897
-0.974853365	0.03145474	-0.334136506
0.860809984	-0.023403688	-0.854171719
-0.975320759	0.845028196	-0.939941664
0.656287224	-0.024690562	-0.92140006
-0.136070144	-0.703755555	-0.423658682
-0.125861939	0.009051169	0.142473086
-0.2909076	-0.994582192	0.241677244
0.230369071	0.649293217	0.671802082
-0.340960385	-0.580143542	-0.536956566
0.602478036	-0.229912496	-0.89760116
0.138857749	0.934337181	-0.203401439
0.955385458	0.297118775	-0.125430678
-0.146972087	0.779322951	0.036317142
0.430374728	-0.281205819	-0.123500787
-0.051434666	-0.848397532	-0.96447595
-0.032057141	-0.941901748	-0.154569393
0.531246725	-0.108558327	0.747514717
0.547546324	-0.033346023	0.589195213
0.742878255	0.789224487	0.625680991
-0.499431279	0.525657869	0.548789125
-0.795944068	-0.601314359	-0.133597766
0.717751419	-0.650493521	-0.683337729
0.275749545	0.866734784	0.7693104
-0.854293341	-0.127156004	-0.441730701
0.652574095	-0.43369676	0.795579204
-0.538748148	0.728024183	0.503032827
-0.869035691	-0.95496544	-0.316649402
0.965425586	0.156161855	-0.733763015
-0.692853471	-0.13845159	0.593461366
0.380433877	-0.376455373	0.854417084
0.630061907	-0.737425091	0.502963107
0.560908201	-0.278351889	0.906076473
0.421432233	-0.874836748	-0.985920911
-0.118463045	0.207911188	0.116672453
-0.08917803	-0.305899273	0.971145327
-0.426574838	-0.945998692	-0.767131821
0.560997578	0.554228853	0.795320405
0.289704538	-0.101644505	0.377616787
-0.060936414	-0.903967898	-0.749379342
0.104574661	-0.594357546	-0.449876576
0.981670526	0.121023246	-0.953427496
0.825937881	0.707247432	-0.702332868
0.416173523	0.973335926	0.287845145
0.202150082	0.834539766	0.568636745
-0.270637346	0.916712687	0.926723117
-0.511249059	-0.42798805	0.905180576
0.442029875	0.520532589	0.917451608
0.187670491	-0.02955314	-0.204354399
0.610613092	0.888543902	-0.114872103
0.404618784	0.517758631	0.017773982
-0.775682087	0.10375407	-0.175867419
-0.562891124	-0.980301579	0.01629769
-0.874957662	-0.895708957	0.823716877
0.394382082	-0.77804734	-0.786920752
-0.560280719	0.075054677	0.382178296
-0.2962081	0.610020824	-0.42983118
-0.168336297	-0.670460217	-0.195644187
0.735273383	-0.182973643	0.562998038
0.936313529	-0.532050275	0.346492673
-0.388940798	0.217764641	-0.342625608
-0.178683236	-0.557725609	-0.704616239
0.298982835	0.001814519	-0.754474005
0.142732309	-0.506957379	0.580217151
0.182350545	-0.192376814	-0.357222083
0.294413831	-0.411486291	0.248398451
0.641800209	0.638971804	0.141712811
-0.844655553	0.151543637	0.919220775
0.792987679	0.480414573	0.488110166
0.591223674	0.161517792	0.547032049
0.721734519	0.565203415	-0.789297318
-0.233782107	-0.412593823	-0.566279552
0.480890028	0.734561332	-0.58763655
-0.706273896	0.579587194	-0.947858368
0.241332037	0.582479238	0.922877901
-0.066131669	-0.527390479	0.452471636
0.546527179	0.710937793	-0.002335437
0.212495819	0.994795736	0.248857219
-0.331155297	0.370684156	-0.201600735
0.231048242	0.397836129	-0.366529301
0.296770952	0.844542417	0.134281957
0.382130849	0.903979211	-0.937694497
0.735102972	0.563274444	0.286402729
0.882196256	-0.313318531	0.424006647
-0.275572133	-0.587210592	-0.329370857
0.941988722	0.227822659	0.887307889
0.318851102	-0.933785642	0.441032792
0.51733833	-0.359483463	0.080091499
-0.0123417	-0.57658449	-0.09630271
0.917077551	0.192417685	0.064427464
-0.836923403	0.465510651	-0.592189008
0.41023451	0.347799678	0.136983224
0.37582379	0.225282186	0.971578073
0.706090615	0.159353144	0.320449999
0.871780657	-0.667608337	0.033898885
0.699514222	0.68209712	-0.369683608
0.706818222	0.665064823	0.466919125
-0.736911029	0.590815676	0.826683873
-0.331569658	0.738221287	-0.739130619
0.883660662	-0.610086726	-0.166467146
0.207132033	0.45759918	0.073086885
-0.335080556	-0.365851261	-0.668496951
-0.471540455	-0.890028107	0.19882197
-0.002780502	-0.203859994	0.630667539
0.739000513	-0.854019693	-0.612352561
-0.936063922	-0.216631512	-0.285591684
-0.271802012	-0.876207817	-0.622391345
-0.311674875	-0.532007071	0.19632159
0.561517863	0.605784157	-0.102563241
0.83530697	0.355863671	-0.718515088
-0.064485001	-0.168312327	0.191071364
-0.194453924	-0.049245064	-0.574821121
-0.012782825	-0.070378433	-0.278633032
-0.469255811	-0.779882268	0.012341473
0.524939101	0.191634641	-0.147640863
-0.015994711	0.834263996	-0.201449133
0.824523679	-0.006458124	0.928065902
0.77278863	0.365747883	0.317581078
0.308230374	-0.220010819	-0.686604748
-0.284721385	-0.605505489	-0.912692111
0.307503191	-0.626323746	-0.641788683
0.025499486	0.400830561	-0.909835422
0.832467959	0.439813255	-0.230465025
0.373828846	-0.160465272	0.796291255
-0.87731443	0.954214499	0.354257986
-0.480367622	0.919882621	0.538910287
-0.088818682	-0.852578621	-0.310624971
0.13391285	-0.132896746	0.496022557
-0.758440842	-0.04294555	0.954351677
-0.345959023	0.589887748	0.439530273
0.445809896	-0.953839736	-0.081954569
-0.268171118	0.273229437	-0.670059432
0.549235871	-0.937143665	0.871198713
0.841640474	0.029396942	0.196069649
-0.686126182	0.62645859	0.176897736
0.996907847	0.211517616	-0.534191094
0.590798777	-0.134243844	-0.212411109
0.553083279	-0.584476303	-0.196389754
-0.888558044	-0.82559423	-0.657789956
0.891509484	-0.864524386	0.844589086
0.884625855	0.378199226	0.768299952
0.583091587	0.158733936	-0.848014283
-0.633157383	-0.845369725	-0.129808057
0.307926956	0.367154519	0.860313599
-0.679493291	-0.171071859	0.956764306
-0.331902137	0.885088299	0.694021107
-0.805270731	0.084044972	-0.882302321
0.051957927	0.44368237	0.39559073
0.774142021	0.151388216	-0.790827485
-0.228460747	0.456692464	-0.543611024
-0.890030229	-0.710750411	-0.942528947
-0.610077534	0.410932065	0.720714879
-0.528376885	0.876702788	-0.022386282
-0.766214004	-0.92988598	0.47343188
-0.68078764	-0.831027595	0.100267284
-0.507524545	-0.913747105	-0.990869911
0.366012692	-0.762731531	0.033911775
-0.33862985	0.593088794	-0.192136683
0.061272662	-0.668084428	0.243307182
0.479740777	0.162714137	0.043144295
-0.452858279	0.893529672	0.320191271
-0.180105429	0.968043275	-0.278523432
0.04599493	-0.105903304	0.972860047
0.239849317	0.1180612	-0.90519189
-0.714808464	-0.299071364	-0.713325673
-0.523423218	-0.289693436	0.600688504
0.122291361	-0.405677456	-0.026094115
-0.835697997	0.293939649	-0.053372115
0.009924687	-0.905070975	0.662193357
0.331175167	-0.826301331	0.217575421
0.638479662	0.805545794	-0.736469798
-0.876389542	0.221561845	-0.364890594
-0.022251933	-0.362349131	-0.49370079
-0.869690467	0.636241829	0.517388888
-0.838537008	-0.284971203	0.487118104
-0.489482296	0.056050925	-0.414963319
-0.001437776	0.257299793	-0.135943149
-0.313402606	0.7773961	0.506643002
-0.703704502	-0.64189397	-0.887814174
-0.23753052	-0.406890983	0.81403737
-0.044646997	-0.332269476	0.291953614
0.740677049	-0.109923668	-0.331497393
-0.065317959	0.457308844	-0.407204582
-0.884313316	-0.184638017	-0.659567891
0.046003408	-0.70245456	-0.263563365
-0.249864908	0.274012551	0.342711379
-0.543848398	-0.411073344	0.414144284
-0.060892991	0.437675122	0.784119217
-0.374512966	-0.235128851	-0.810245187
0.301743428	-0.339229684	0.048893458
-0.605611625	0.464533225	-0.753481235
0.607701179	-0.66606721	0.296747123
0.266805353	-0.135299475	-0.894013329
0.160186604	-0.664059396	0.70479167
0.269738549	-0.80333681	0.856313529
-0.971368771	0.188141774	-0.200551822
0.879676148	0.177141756	0.455676996
0.451908855	0.896087256	-0.268226697
-0.471859923	0.716576217	0.147591154
-0.973264509	0.360591914	-0.689305733
-0.332826743	0.963900369	-0.096439605
0.342563524	0.288845551	-0.046999692
0.580053245	0.946729127	-0.916521063
-0.171371529	-0.441630151	-0.186800332
-0.283291414	-0.848247627	0.345244781
-0.842787392	-0.245584613	0.273074228
0.965954498	0.052297442	0.796508335
0.835087769	0.075873358	-0.295154519
-0.019734795	-0.030907635	0.738569181
-0.041306037	0.83499726	-0.609622656
-0.878891266	0.510942177	0.093189698
0.907260867	0.316335166	-0.898949601
0.912043699	-0.274688045	-0.355408227
0.931686966	-0.096573388	-0.646538634
0.480012021	-0.303792961	0.242229631
0.580808853	-0.935722392	0.648973042
-0.608202655	0.513834715	-0.373375099
0.910803444	0.569681416	0.816556771
-0.322110202	0.596693171	0.233257438
0.752228252	-0.841168131	-0.803601266
-0.784583076	-0.501521681	-0.550584949
-0.886764836	0.279525111	-0.874610476
-0.419270555	-0.667103113	-0.173437112
-0.047819965	0.011785211	-0.736314236
0.049986636	-0.791304071	0.826502855
-0.525561916	0.550502077	0.328096802
-0.619888066	-0.422265481	-0.88903958
0.867013382	-0.230488359	0.050313302
0.027149612	0.094198306	0.931268363
0.663535152	-0.000297601	-0.690769715
0.868931747	0.720934081	0.342470187
-0.469647899	-0.428294578	-0.529675405
-0.115122063	0.45577698	0.573436759
0.789265499	-0.109895455	0.373173717
0.035490392	0.488525093	0.213296894
-0.825881313	0.190730541	-0.693103997
-0.93490569	0.036944397	-0.551088405
-0.197243367	-0.085403101	0.638140961
-0.811262706	-0.086851456	-0.216659796
-0.229705598	-0.21653966	0.324396118
0.607103467	0.339093638	0.189782955
-0.96746133	0.622516148	-0.675011826
0.252504658	0.863590306	-0.047913472
0.561348725	-0.977150736	0.437208577
-0.996849158	-0.697367533	0.452379925
-0.330851739	0.48622454	-0.970478531
-0.120537397	-0.744712475	0.700217575
0.880313953	-0.511499938	-0.634345101
-0.647853277	-0.22740554	0.765358412
-0.740154502	0.102483056	0.243575103
0.517784652	-0.645768884	-0.689113967
0.348619916	0.573986388	-0.446324807
0.646680974	-0.567072425	0.622719794
-0.153301561	-0.22646955	0.790607577
-0.731319981	0.303504888	-0.223138115
-0.442633951	0.216398805	-0.55697382
-0.768861391	0.103567537	0.450971522
-0.647212855	0.296610087	-0.61514667
-0.247809648	-0.654581909	0.359578497
0.701643515	-0.698204246	-0.075645742
-0.404547013	-0.260936131	0.426304372
0.738753027	-0.989937952	0.943466563
-0.757805158	0.275328749	0.592820874
0.284710919	0.243466139	0.603621065
0.10389245	-0.106393891	0.278008733
0.904183563	0.280101328	-0.357805017
0.508798883	0.702956177	0.497435627
0.768116813	0.153407626	-0.974596687
-0.991603882	-0.790213014	-0.090835263
0.696052679	0.195710018	-0.033713744
0.603009705	0.524156835	-0.966243702
0.901216567	-0.297265569	-0.666273825
0.39103813	0.699325567	0.795173328
-0.805950255	-0.943712634	0.048978988
-0.23576397	-0.862224186	-0.829837544
0.778457459	-0.092149481	-0.107545617
0.920239	-0.098985098	-0.442079019
0.617619615	-0.707385317	-0.494958299
-0.650552706	0.520245718	-0.568186463
0.361891213	0.264958546	-0.265964327
-0.606908377	-0.763887642	0.527351305
-0.077648535	0.316670261	-0.573876717
-0.000859287	0.628637027	-0.263918259
-0.410599304	-0.467454684	0.723105588
0.276097368	0.44965794	-0.151024342
-0.087030777	-0.25317004	-0.137453376
-0.803632378	0.281585674	0.356109884
-0.412231717	-0.584013435	0.032453895
0.896443635	0.762001096	-0.394708904
0.490870547	-0.053698768	-0.765636303
-0.922276158	-0.607947675	-0.76529548
-0.081346462	0.298994573	0.45605777
-0.273210203	0.914021461	-0.851704644
0.210767876	0.257863494	0.138687479
-0.980942212	0.975977656	-0.615562658
-0.174758189	-0.630560342	0.043156704
0.231499655	-0.194456398	0.907822306
-0.364263819	0.175813679	-0.132623592
0.738744542	0.533487104	0.897221446
0.224523679	-0.444568863	-0.716646927
-0.727264049	0.352394633	-0.418034118
0.938949601	0.361127119	0.188325549
-0.681611837	-0.906669731	0.875041807
-0.956181654	0.171153529	0.307699694
0.538109	0.291346356	0.37601789
0.563810426	0.723233573	0.688195301
0.399918754	0.049911627	0.857901678
-0.434329474	0.747810285	-0.550775513
-0.911388216	0.845797522	-0.056728208
-0.105695204	-0.679612084	-0.870203115
-0.668842369	0.786777917	-0.890050735
-0.335874914	-0.735119235	0.174536018
0.210526614	-0.595943149	-0.048656211
0.197258216	0.521597483	-0.640327812
-0.166783362	0.585941417	0.957437466
0.010274963	0.668025031	0.321373615
0.729732539	0.71293606	0.843362266
0.911157701	0.679720695	0.555266878
0.708715374	-0.323967898	-0.02487298
-0.911903693	0.410469692	-0.252626774
0.711306192	-0.514879174	0.07136071
0.671050858	-0.790175538	0.86668458
-0.463293252	0.269708639	-0.940186321
-0.844021284	0.569562835	0.302512966
-0.831439127	0.541618766	-0.403270625
-0.517389736	-0.628995457	0.831101133
0.560709293	0.228403896	-0.476515547
-0.600294578	0.085899698	0.594770139
-0.513290672	-0.226450034	-0.623085435
0.181182132	-0.801794622	0.327785748
-0.352778023	0.418947409	0.281598331
0.804104722	0.949611978	-0.014951928
-0.92493203	-0.760169704	0.097445315
-0.763781576	0.614350121	-0.751702876
0.292583217	0.054230579	-0.561812654
0.667973696	-0.311572133	0.386451732
0.584355177	0.482249359	0.401232124
0.023136863	0.88570772	-0.020237932
-0.752968587	-0.855021655	0.652631017
0.511613923	-0.330947763	0.697381322
0.930460146	-0.347355265	0.99337517
0.274895508	0.388092418	-0.560543195
-0.285877565	0.317731903	-0.854360515
0.450676802	-0.045753674	0.250018066
-0.641061005	0.918055472	0.385508954
0.994150153	-0.304453535	0.790579293
0.011825855	-0.155441814	-0.586544008
0.743965069	0.343831781	0.954378547
-0.821718609	0.710951228	0.969099684
-0.715984373	0.961815128	-0.124534356
0.982293482	-0.196065053	-0.848642896
-0.382673337	-0.928959678	0.647222472
-0.643626014	0.421289328	-0.106501158
-0.424532518	0.14606226	-0.736018667
0.084543478	0.757315137	0.686263855
0.173509449	-0.213541692	0.121230922
-0.180468242	-0.097769025	-0.352566742
0.578058795	0.016056306	-0.062570164
0.09459096	0.31032311	0.526462479
-0.580239849	-0.937116795	0.497025579
0.26546575	0.786356485	0.953097987
0.450732733	0.337196061	-0.616292598
-0.160238364	0.759819689	0.649622161
0.117403454	-0.944799448	-0.815373791
-0.020362679	0.154526826	0.76214393
-0.675532535	0.262505047	0.13839686
0.417085542	0.4314264	0.317315067
-0.620535063	-0.524179109	-0.732466899
0.260027223	0.997705457	-0.704314377
0.270570383	-0.832692818	-0.649167848
0.610626173	0.004936499	0.898090474
-0.868783963	-0.29908487	-0.811137549
0.546938924	0.364128763	0.904526507
0.238400962	0.229313582	0.430471389
-0.114193215	-0.875908713	-0.511372306
-0.823979211	-0.533469922	0.724244728
-0.267351447	0.466787039	-0.731303718
-0.329268751	-0.939249412	-0.980015203
-0.945641606	0.047807463	0.463695734
-0.377214093	-0.941082925	0.053374272
-0.149495872	0.156215312	-0.798098605
-0.702020612	-0.599157913	0.824730153
0.591291555	-0.861684668	-0.382087362
-0.353505418	-0.138728632	-0.624127632
0.582491117	-0.767714473	-0.824473475
-0.252575792	-0.547255918	0.507110396
-0.167470735	0.915478089	0.561911648
-0.958822677	0.578873517	0.941285863
0.905070268	-0.659693542	0.724323923
-0.371764606	-0.077938588	0.386157931
-0.588772791	0.782895932	-0.200013081
0.342162881	-0.276261415	0.408722587
0.224202514	0.405440718	0.480120702
-0.977343775	-0.002781633	-0.145323269
-0.225592957	-0.462168679	0.005675024
-0.484556489	0.096258233	0.968868462
-0.17287433	0.646031219	0.524590147
-0.376008697	0.178250632	0.675803992
-0.153092188	-0.682736128	0.526711803
-0.544990083	-0.599655642	0.441791723
-0.037848984	-0.908701939	0.035988085
0.553306581	-0.154345666	0.146978734
-0.397194082	0.017122933	-0.589172374
-0.631833973	-0.919499372	-0.328745355
-0.791297	-0.727406177	0.486238187
0.352824692	-0.673042833	0.736253425
0.003821261	0.501339108	-0.583070445
-0.545037459	0.241291167	0.6760647
-0.558938995	0.628115116	-0.838043451
0.838303665	0.045954236	-0.642125758
0.116192614	-0.640294083	-0.91014584
0.740752709	0.566005834	0.006041083
-0.823748696	0.666116778	-0.220052043
-0.993390726	0.890468631	-0.274100727
-0.91777051	0.329359473	0.94080857
-0.197315067	0.681817108	0.358942672
-0.630715056	-0.362448832	0.25856614
0.687702381	0.781388393	0.281436759
0.948161007	-0.420366561	0.65289618
0.138209762	-0.08260694	-0.712525235
-0.290172002	-0.747864024	-0.059926447
0.19556386	0.488469657	0.761303894
0.972276689	-0.704082165	0.264237586
-0.99756333	0.940404108	-0.430595414
-0.898396648	-0.98806767	-0.78842122
0.481254751	-0.651519171	0.642465025
-0.522143577	-0.379938977	-0.732604784
-0.166871325	0.070853011	0.843736322
0.358922449	0.336452262	0.435776203
-0.042258672	-0.02520157	-0.465518924
-0.944478425	0.385412293	-0.449021337
0.384445898	0.794720783	0.620122046
0.015983263	-0.709515813	0.582303594
-0.647151903	-0.008132914	-0.309467023
0.253495802	0.746287896	-0.47578886
-0.905438668	-0.154823879	0.072621542
-0.861517792	-0.669170111	0.61845555
-0.837119977	0.290094504	-0.545372271
0.417982711	0.393583624	-0.396601884
0.924159876	0.017163393	0.358082342
-0.257819725	-0.793879333	-0.996306811
0.406811646	0.168338914	0.460330004
0.210616557	-0.484852835	-0.530680125
-0.253128675	0.121425869	0.234979017
0.556337287	0.07987053	0.756271456
-0.188197069	-0.571951634	0.771532111
-0.507501282	-0.792610087	-0.289619756
-0.52899772	0.373413707	0.224955789
-0.562676943	0.525361735	0.884664039
-0.598179427	-0.939176581	-0.666946419
0.755446976	0.461166929	0.139503544
0.398077675	0.200196786	-0.843733494
-0.971124114	-0.837791016	0.966833425
-0.633778642	-0.762198377	0.762281108
-0.665758136	-0.528200675	0.961700578
-0.269474518	-0.446006611	-0.811592215
-0.362793827	-0.403282717	0.533275257
-0.502089059	-0.826335979	0.839324718
-0.405271156	0.291950644	0.792657463
0.41975308	-0.773890293	-0.58949962
0.659503756	0.33129205	-0.176253849
0.629904647	-0.230179427	-0.705112199
-0.948637593	-0.926576747	0.203089183
0.534592657	-0.896768902	0.188598702
-0.295407944	0.266357899	0.163623044
0.044068044	0.230344394	0.030521438
-0.633099259	-0.419222684	-0.609903304
0.926496845	-0.76359278	-0.918539129
-0.218581272	-0.304700525	-0.023853206
0.619512949	-0.351441037	-0.485368028
0.50805275	-0.278087857	-0.591442875
0.004458666	0.85647899	0.277842564
-0.017778642	-0.351473917	-0.857756015
-0.558183882	-0.51610154	-0.20451477
-0.758356697	0.953468507	0.736348884
0.46498287	-0.656935636	-0.914015097
-0.342249783	-0.845586805	0.87192137
0.923665612	-0.905169969	-0.727387085
0.862130849	0.855363185	0.473731054
-0.716287012	-0.108041365	-0.037396277
0.716409341	-0.009169248	-0.483183369
-0.297961216	-0.264145663	-0.353180152
-0.055970415	-0.417291803	0.821798512
0.749376514	-0.643099153	0.763754707
-0.659445067	0.149768106	-0.983367569
-0.985318461	0.370643709	0.02961685
0.450958299	0.181717478	0.659983171
0.795871237	-0.422839152	0.286336262
-0.249656031	-0.388421149	-0.974587495
0.293183192	-0.39537966	-0.413767046
0.684488253	0.842714561	0.452081387
0.749327724	0.213382948	0.630942106
-0.957752833	-0.549328289	-0.196253849
-0.478351677	-0.554262441	0.28045113
0.856370804	0.643967756	-0.531193551
-0.996144885	0.681035691	0.031825268
-0.56689664	-0.987264403	-0.475293111
0.065063657	-0.457567855	-0.616445403
0.40756188	-0.648004313	0.264319115
-0.926127738	0.122493238	-0.029953501
0.710991532	-0.858729693	0.076202726
0.728562994	-0.361171666	0.963612579
-0.85018367	-0.223723948	0.659430572
-0.980482596	0.634162881	0.202856476
-0.285537591	0.55092959	0.601890081
0.119113295	0.420175927	0.879258958
0.850184377	0.939964998	-0.341666001
0.09001248	-0.148375188	-0.850207004
0.958729339	-0.541088441	0.137360604
0.10870201	0.15588552	0.536200463
0.143925118	0.32579434	-0.223429582
0.597734731	0.75001644	-0.226155315
0.064411377	-0.229910021	-0.005223244
0.167928583	-0.754950591	0.052201043
-0.259636197	0.429986176	0.855776839
-0.909180647	0.20016228	0.740713819
-0.881726034	0.485609503	-0.793850342
0.066799576	-0.616470576	0.064282756
-0.473413495	-0.130553271	-0.119535222
0.738062897	0.1762728	-0.422596122
0.474121657	0.233823614	0.812556701
0.826681044	0.208091145	-0.606741926
-0.6071606	-0.682024925	-0.220412806
0.940348954	0.419881773	0.935283989
-0.842258481	0.896993053	0.550543018
-0.573681133	0.132704273	0.140510244
0.178523078	-0.167389135	0.692770174
0.26384267	-0.600886705	0.309064046
-0.39927013	-0.405610493	-0.367641146
-0.933912921	0.448535629	0.811185632
-0.432438756	0.409049621	-0.801894324
0.565815977	-0.841098128	-0.679642278
-0.750128869	-0.740901907	0.91291414
-0.848046103	0.743248776	-0.84707596
0.032255999	-0.986602556	0.300641058
0.321231911	-0.481998338	-0.933607453
0.477388181	0.890550655	0.704536478
-0.287595185	0.116793721	-0.537690396
-0.276389896	-0.291095476	-0.18852382
-0.986024855	-0.131791617	0.851983949
0.547263059	-0.266866022	-0.327613994
-0.644077569	-0.295429935	-0.503303081
0.052322268	-0.761552087	-0.818924853
-0.694393608	-0.562397921	-0.268119854
0.347372165	0.748960738	-0.350275593
-0.399039615	0.72841521	0.333835069
0.954881295	0.49586459	-0.381570118
-0.812539023	0.337478478	0.800892362
0.463467694	-0.369087734	-0.429035479
-0.656555004	0.24241178	-0.035152221
-0.940310771	-0.381686012	0.372765649
0.592650674	-0.62126366	0.791656915
-0.145885414	0.393348583	0.97168131
-0.840953879	0.840382542	-0.219993919
0.186125263	-0.52923969	0.973863423
0.390998886	-0.090387032	-0.595263554
-0.992844137	-0.528230232	0.751971575
-0.716996235	-0.371073485	0.927517898
-0.178027329	0.857697325	-0.134673478
0.746176881	0.998883487	-0.863200693
0.98890912	-0.370595061	-0.185923668
0.502229772	-0.40826085	-0.241971327
-0.196646573	0.626241298	-0.849811027
0.776075236	0.279175096	0.140374976
0.104311973	0.035006085	0.411188177
0.157158585	0.71775849	0.838027188
0.337874171	-0.294183033	0.680611855
-0.92151461	0.626569535	-0.100485637
-0.224470576	-0.221106401	-0.685554137
0.257882939	0.295232795	-0.883932896
0.556403189	0.628679948	-0.753668617
-0.259139175	-0.044946108	0.271272817
0.161040216	-0.667747706	0.902612385
-0.995717796	0.79342891	0.220772154
-0.781443547	-0.657160565	0.049963323
0.725287702	0.624857784	-0.190572434
0.678113737	-0.13475925	0.878764694
0.578836394	0.335519454	0.00051057
-0.803529849	-0.332036486	0.782867648
0.139186834	-0.000554222	0.614269229
0.545733458	0.322613728	-0.312035355
-0.416420372	-0.15389892	0.25162064
-0.141688487	0.800259506	0.256146158
-0.92242465	0.798010925	-0.561525924
-0.584468808	-0.7424844	0.9789694
0.000471462	0.979708321	0.517977196
0.924070781	0.236907211	0.665105906
-0.268840248	0.843276706	0.346453853
0.09358228	0.025807237	-0.588386501
-0.604648412	0.826844385	0.178891195
-0.06799481	-0.290685641	0.063006877
0.399275929	-0.179568386	0.096542559
0.316753416	-0.56428779	-0.429541551
0.474106171	-0.524618431	0.756212767
0.283781011	0.425736004	0.636598702
0.54710078	-0.830729198	0.037199173
0.219060404	-0.703540738	-0.344078559
-0.401039014	-0.720357086	0.956571974
-0.953041418	-0.839707967	-0.829974721
-0.65939062	0.631437148	-0.164244657
0.482317665	0.314017784	-0.7743888
-0.925810957	0.772647917	0.626481218
-0.884713536	-0.393745762	0.653760611
-0.795681027	0.980927363	-0.645632272
-0.660622178	-0.63325263	-0.403956301
-0.32480355	0.59073733	-0.622694762
-0.882567484	-0.516897453	0.078500521
-0.9844162	0.477633898	-0.096666584
0.371943149	-0.266426417	-0.339684845
-0.373911153	0.072184412	0.340535134
-0.785498771	-0.784387916	-0.798742067
0.123935017	0.864941576	-0.504866411
0.090758118	0.381883081	-0.504492849
-0.137233891	-0.508739133	0.94974562
0.943644045	0.505132352	-0.782996341
0.284564408	0.547733706	0.513044954
-0.130414538	0.35892655	-0.013638028
0.569733458	0.877272004	0.562822252
-0.154756492	0.961955134	-0.48370627
-0.908911241	0.408977355	0.273443971
0.466126394	-0.803880571	0.743648995
0.421098128	-0.980944333	0.108745638
-0.624386996	0.251018332	0.302147183
-0.833386484	-0.513669183	0.553508388
-0.778837879	0.647164348	-0.035330361
-0.705508671	-0.153750004	-0.559966625
0.484979689	-0.107196875	-0.368239637
-0.454806131	-0.92148067	-0.378150436
-0.219436158	-0.09007817	0.451758101
-0.722943662	-0.829177818	-0.953024448
0.354043239	-0.448023051	-0.272696212
0.793872969	0.245978257	-0.19876031
-0.503596033	-0.266882215	-0.419743959
-0.479219714	-0.283209461	0.786135162
0.171276494	-0.939755697	0.772595591
-0.04123631	-0.025244498	0.538614294
0.67667111	0.049690424	-0.188881543
-0.627171843	0.237907688	0.463653379
0.614894801	-0.877692729	-0.945150878
0.99376054	0.74757977	-0.196595945
-0.478318514	0.598353869	-0.991883894
-0.69041871	-0.015186791	-0.470445226
-0.219320476	-0.888959678	-0.127961534
0.411107921	0.511734696	-0.275395853
-0.799361488	0.038865874	-0.365024307
0.318921742	0.701599321	0.50171571
0.375401793	-0.73012498	-0.428434443
0.465917092	0.313779208	0.553739469
0.133703406	0.732565893	0.017244929
0.177134473	0.736458484	0.408014283
0.379839205	-0.268063427	-0.989288833
0.171261574	-0.508002263	0.137659708
0.419661157	0.789778147	-0.130461277
0.353437749	0.526674398	0.754034188
0.194916085	0.415678057	-0.983615761
-0.656353621	0.019589097	-0.802031501
-0.099427743	-0.780848168	-0.073417384
0.589257721	0.48404681	0.051751489
0.567063727	-0.95538263	-0.24892602
-0.865398363	-0.038840538	-0.036086775
-0.407994838	0.332242182	0.63575407
0.714708763	0.34045502	-0.348454312
0.458505471	-0.382103979	-0.917664445
0.265278722	-0.078344889	0.174144708
0.496450777	-0.383165267	0.420221676
0.061914858	0.355976524	-0.694889144
0.943685057	0.858201488	0.087339497
-0.273588078	0.084949283	-0.699767717
0.33241323	-0.113015326	-0.438469975
-0.989512984	0.101975145	0.615324577
0.429113118	-0.115021726	-0.052128784
-0.56923672	0.739197794	0.31732334
0.634898195	-0.989159434	-0.743726069
-0.122980219	-0.077180859	0.898618678
0.44117697	0.882923863	0.002722256
0.61677173	-0.411851933	-0.940973325
-0.626244763	0.131669006	-0.52596263
-0.571672471	0.968159239	-0.848415917
-0.542942601	0.344440453	0.556001273
0.811802931	-0.5144605	0.677394191
-0.683225936	0.15381527	-0.364206261
-0.206081776	-0.940033587	0.651919037
-0.01034626	0.688892644	-0.066138443
0.606384133	0.224614966	0.717907688
0.737719953	-0.989163676	0.159832063
-0.812101328	0.481175414	-0.091710018
0.607723665	0.968891089	0.255456946
0.127662076	0.101803461	-0.738719086
-0.128588379	-0.13600099	0.00741184
-0.748960031	0.297549329	0.982589051
0.919145822	-0.093620181	-0.232819601
-0.495296576	-0.255424349	0.143812689
-0.72902261	-0.558701197	0.164527144
0.533481023	0.598695186	-0.42188697
-0.018187361	0.861886899	0.618402164
0.064243808	0.862166911	0.424682706
0.58714165	0.993030105	0.057027496
0.647878732	0.835890329	0.962081706
0.344357652	0.397166717	-0.742228429
0.976395552	0.493877353	-0.550016864
0.996682989	-0.582770634	0.600675211
-0.796278527	-0.291965776	-0.540393007
0.318150365	-0.579579204	0.865452103
-0.587605862	0.891838993	0.9806721
0.524642118	-0.871471654	-0.522577666
-0.386251268	0.374284219	-0.448593187
0.3184197	0.202480581	0.775978363
-0.093005498	0.168029274	0.294896215
0.553431597	-0.126260178	-0.603287101
0.065257077	-0.083950362	0.089916244
-0.003689015	-0.19355442	-0.411274231
-0.848665524	0.003541996	0.799283707
0.3761364	0.627767081	-0.14393629
-0.567414732	-0.008040312	-0.595506797
-0.532228535	0.550709823	-0.213070551
0.526238328	0.506276017	0.216072549
0.14031367	-0.444196645	-0.888177624
0.777941982	-0.786357899	-0.417485266
-0.390494511	-0.648293447	0.513462921
-0.306372395	-0.184722445	-0.076700666
0.873133342	0.205146989	0.255236331
0.508906009	-0.460529689	0.562139971
-0.763321254	-0.977757429	0.231481271
-0.031296463	0.588341813	0.478148456
0.015299758	-0.506433913	-0.981922961
-0.060598497	-0.690953278	0.375585356
-0.954696742	-0.093308773	0.689683749
0.898627163	-0.561550531	-0.808069437
-0.935373791	0.343649773	0.668339196
-0.455620499	0.536660786	-0.498526048
0.397504145	-0.615301526	-0.072769255
0.406602556	0.876818752	0.468310983
-0.357270024	0.797029468	0.018540756
0.139245594	0.723654298	-0.146100373
0.716542276	-0.345963337	-0.628235606
0.968548852	-0.334724036	0.249565451
0.067940257	0.580945748	0.772889038
0.105400838	-0.859553466	-0.66782174
0.629239902	-0.322481854	-0.193045308
-0.382849547	-0.516022981	0.399921795
0.105189061	-0.342783928	0.169160636
0.73298379	-0.943674451	0.763776627
0.65807018	0.192901695	-0.280412381
0.495114851	0.157745408	-0.329731761
-0.036674956	0.587304213	-0.874126111
-0.527467694	-0.120038961	-0.307433753
-0.747254503	0.789160141	0.474483268
0.866614577	-0.40811448	0.141546996
0.244047022	-0.854091817	-0.4027374
0.048786869	-0.971722321	0.888952607
0.121966236	0.865179869	0.906925701
-0.491261786	0.752536548	-0.928081458
0.861599816	0.968372784	-0.501887323
0.624932525	0.050068023	-0.354919055
0.831265888	0.855050646	0.216535488
-0.642238116	-0.118009793	-0.707851297
-0.246766745	0.397661405	0.689496084
0.934439004	0.877250084	0.618188973
0.064562923	0.076051831	0.058962513
-0.111422581	0.794887659	0.448866552
0.543516131	0.83821952	0.3633448
-0.569536884	0.250666973	-0.412835793
0.7737814	-0.819816507	-0.987683714
0.406750199	-0.937962488	-0.654575757
0.718172144	-0.286481076	-0.364670332
0.561774612	0.694289098	0.923534798
-0.737344482	-0.944555499	-0.780353197
0.258987148	-0.317473174	-0.879353003
0.306682883	0.669036893	-0.602345242
-0.656118086	-0.256727324	0.444614188
0.087000654	-0.399373084	0.899849034
0.066110697	-0.748253637	-0.081293429
0.676047588	-0.229868232	0.735958564
0.74327706	-0.921510368	-0.33315307
-0.972653574	0.816340398	0.473179515
0.041043872	0.525890152	-0.739808022
-0.436601036	-0.849696477	0.513869646
-0.602863547	0.947294808	0.834734218
0.622274108	0.348634058	0.580605349
0.040630734	0.60012749	0.073530025
-0.630659831	0.072331984	0.882669307
0.27877721	0.793307996	-0.213722145
0.903313122	0.532344146	0.2199283
-0.046120002	0.288780852	0.659296152
-0.244832824	-0.914823313	-0.420287083
0.018578635	0.403273029	0.035225137
0.551645672	-0.560476233	0.15509583
-0.282247521	-0.567365094	-0.101449062
0.326056745	0.503296364	0.206493238
-0.370935459	0.905441496	-0.667824851
-0.959942725	-0.605927345	-0.031916286
0.679141155	0.467853984	-0.107691421
0.015733076	0.751999859	0.142018632
0.658355212	-0.009085831	0.261301773
0.392508123	0.984982588	0.592639078
-0.411039474	0.486573141	-0.334976683
-0.334460995	0.04994462	-0.2798566
-0.143582103	0.625833513	-0.132865421
-0.800330216	0.906999947	-0.850221853
0.033299058	-0.400517669	-0.178801817
-0.296988527	0.152668423	0.046350156
-0.486404356	0.580701798	-0.65608167
-0.90446004	-0.622125475	0.209947003
-0.598642012	0.689609291	0.941393343
0.088135339	0.007488349	-0.875483746
-0.347293394	0.044595584	0.756224787
-0.26841726	0.734333646	-0.095278121
0.728951899	-0.112589722	0.125773975
-0.165231982	-0.097630504	-0.163097385
-0.467391681	-0.933021266	0.373712811
0.904943697	0.994774523	0.182934682
0.153468932	0.335833619	-0.059016981
-0.236169704	0.470896852	-0.074446075
0.607351235	-0.74958723	0.689572663
0.20373017	-0.11318998	-0.556439817
-0.840021213	0.920626492	-0.48033064
0.413363432	0.597399494	0.618925631
0.237945447	0.622844809	-0.047506521
-0.327675723	-0.674321908	0.805494175
0.442843324	-0.614663438	-0.526845375
0.601109442	-0.719220068	-0.975491877
-0.894969329	-0.015587265	0.307725645
-0.627032191	-0.026921515	-0.141413566
-0.735258534	-0.295487917	-0.911369124
0.610853294	-0.082751401	0.413808482
0.057943587	-0.397439234	0.705577047
-0.010617554	0.203898248	-0.708951546
-0.904375188	-0.909973307	-0.489472679
-0.972893281	0.760159098	0.893289257
-0.561858332	-0.119070162	-0.468921353
0.01254217	-0.672789054	0.979985504
-0.173677456	0.213834998	-0.07138963
-0.495095618	0.281883505	-0.736232212
0.241124786	-0.661857413	0.160235111
0.7411402	0.724067245	-0.049392685
0.844382612	-0.859820043	-0.028894115
0.100394987	0.930982694	-0.676936767
0.833624777	-0.672239495	-0.535345437
-0.052065075	0.124320317	0.612595945
0.013441624	-0.316251516	-0.310215206
-0.764835864	0.419554597	-0.900674928
0.226546412	0.692986335	-0.735755626
-0.446250915	-0.996513992	0.845920557
0.35662734	0.712471495	0.005139323
0.498971946	0.999670491	-0.411505383
-0.987613004	-0.122164507	0.204001131
-0.630401669	-0.368264597	-0.159752868
-0.53706645	-0.361716983	-0.285530025
-0.809704962	-0.598265481	0.946195266
0.549540844	0.082546624	0.378816525
0.859683572	0.6121026	-0.298987573
-0.290826142	0.310052644	-0.024253906
-0.144664675	-0.698176316	0.203297778
-0.982890276	0.633563047	-0.471977302
0.724229879	0.284634482	0.475972777
-0.149940285	0.980208241	-0.033042543
0.654706571	-0.429406353	-0.319515424
0.794347434	-0.269380261	0.857621666
-0.689255882	-0.531523414	0.469221022
0.404333257	0.704308367	-0.750571514
-0.350639113	-0.143397762	0.549125634
0.18940303	0.158988138	0.854554968
0.499314678	-0.733942619	0.15541254
-0.918983896	-0.769770015	-0.421964963
-0.598745391	0.131164702	-0.693372625
0.92525164	0.67261136	-0.857751065
-0.750369991	-0.402909438	0.374188336
0.815336315	-0.338611678	-0.495676855
-0.540894271	0.385436193	-0.498055119
-0.798300129	-0.717262812	0.760701444
-0.277452739	0.018080638	0.946801252
-0.97795966	-0.456824056	0.504619208
0.641389029	-0.789587937	-0.254193286
0.084045042	0.070703092	0.220612562
-0.980417543	-0.453184606	-0.315607771
0.855113578	0.096209302	0.642989765
-0.041934155	0.898840708	0.926005409
0.515722746	-0.715853559	-0.336748891
-0.242231116	0.412343934	-0.350877477
0.040493203	0.307457795	0.178352808
0.808818964	-0.483170429	-0.950333221
0.145155757	0.132189079	0.698706783
-0.462665276	-0.297531722	-0.120058265
0.934083332	0.342983401	0.541627181
0.6380344	-0.456770669	0.245635242
-0.580079054	-0.679837084	-0.76055366
0.760729021	-0.188092418	-0.984029415
0.891694037	0.363101275	-0.531119659
-0.156280436	0.465724832	-0.871205784
-0.357170747	0.152079054	0.884505648
-0.360804327	-0.270411427	-0.50449589
0.633174919	-0.170245541	0.281125069
-0.896799307	-0.965496297	0.619445491
-0.451366862	-0.914513603	-0.562327211
0.364530184	-0.249333168	-0.509215931
0.335513514	0.556480404	-0.768418038
-0.433164383	-0.152496597	0.030772579
0.588594884	-0.179883187	-0.459456876
-0.353322279	0.993759833	-0.295580901
-0.641107815	0.736344641	0.034008747
0.474380809	-0.177903516	0.370206155
-0.098272694	-0.360162633	0.667027948
0.183250261	0.389192243	-0.782384698
0.085948276	0.461433577	-0.277828846
-0.269436334	0.923872085	0.074469268
-0.183433966	0.0598721	-0.205681133
-0.761452386	-0.708326469	0.21403539
-0.289723135	-0.804801923	0.715707897
-0.658468066	0.90931146	-0.719278757
-0.650354364	-0.530398204	0.303478018
0.213309127	-0.77344482	-0.796106702
0.471341335	0.663756545	-0.276381693
-0.028446506	0.141181283	-0.469015609
-0.099805689	0.434847779	-0.711494281
-0.801079743	0.813886758	-0.69145235
0.672470505	0.151401298	0.138887235
-0.435497039	0.91678764	0.134050169
0.666680125	-0.705910799	0.111662147
-0.43201096	0.911451148	-0.952374622
-0.603827397	0.981946296	0.202518623
0.250537644	0.890512471	0.396967456
0.234118828	-0.374163517	0.961397939
0.925543672	0.51700868	0.062136951
-0.088221181	0.339302021	0.273171242
0.356941646	0.24819813	0.297871131
0.4255564	-0.015126971	0.068926373
-0.843378529	0.80272941	0.794110555
-0.926415528	0.915852145	0.720880341
-0.07536467	-0.41785607	-0.031022673
0.139799395	-0.98700419	0.424387067
-0.697402111	0.421633828	0.888291467
0.902490056	0.796342873	-0.054380512
0.193857484	-0.497360887	0.800860542
-0.668596723	0.584376319	0.588590217
0.300396825	-0.222891478	0.2346348
0.130416589	0.616491789	0.503886015
-0.585123866	0.672346621	-0.496905796
0.371577931	-0.907717655	-0.489307713
-0.96086337	0.446002369	-0.93710831
0.372794923	-0.362694974	-0.780150966
0.513790946	0.020572257	-0.24834655
0.480305963	-0.946485177	-0.804162704
0.318752037	-0.722211105	0.413306369
-0.771776768	0.380994467	-0.737311248
-0.611601407	-0.198937793	-0.177028691
-0.931099365	-0.860957061	0.489244498
-0.738214923	0.501513408	-0.237987449
-0.771587265	-0.412728173	0.194094221
-0.873263448	-0.094020471	0.533574926
-0.908709717	0.917697679	0.160932525
0.158287189	0.80589298	0.262526543
0.07941148	-0.206136506	-0.188351924
-0.534028602	-0.461928477	-0.055724231
-0.503535435	0.36303212	0.39212346
0.425887323	0.469610211	0.508448231
-0.653676749	0.556944546	-0.009097265
-0.143293606	-0.253450052	-0.30658099
-0.775594407	-0.472490728	-0.757907688
