  2.703616       10.91330      -8.053649    
  6.739137       7.908536      -6.182885    
  6.853560       11.49237      -9.137575    
  1.808859      -12.54525      -8.234381    
  5.887607      -11.67194      -5.169110    
  1.411374       11.70935      -10.19844    
  4.842652      -13.75257      -5.986109    
  4.207318      -7.964478      -9.398630    
  9.388846      -6.420545      -7.045812    
-0.1963229      -11.80853      -5.720254    
 -12.36513      -11.00293      -11.16399    
  13.53529      -11.18500      -6.942826    
  5.677228      -9.829150      -9.051588    
  9.531639       11.11057      -5.246057    
  11.95165       12.58638      -12.97460    
 -7.786605       14.07366       3.996072    
  10.12592       13.41145      -4.813994    
 -10.24264      -8.366841      -3.008653    
  13.57163      -5.814358      -4.478090    
 -9.886772      -6.818473      -8.939539    
 -8.101100      -8.391302      -12.99625    
 -8.535785      -5.411197      -6.610610    
 -7.926378      -5.940391      -10.28168    
 -11.27106      -9.190527      -5.603502    
 -6.451441      -7.029907      -5.531025    
 -4.548999      -12.30664      -4.447549    
 -8.255687      -11.07878      -14.03659    
 -10.39185      -11.95919     -0.6802141    
 -7.689577      -1.817651      -5.674928    
 -5.662569      -7.656896      -7.798865    
  1.210420      -10.24745      -7.432405    
 -2.614953      -7.967381      -4.451008    
 0.7536725      -5.005522      -8.142736    
 -6.672838      -7.959616      -9.985314    
 -1.226083      -5.223639      -10.08521    
 -1.287312      -6.451772      -7.094139    
  1.485275      -5.677645      -5.780153    
  1.093020      -2.938120      -6.604872    
 0.8833580      -7.896313      -7.739622    
  6.550149      -9.902721      -6.757380    
  4.456136      -10.97219      -3.300594    
  1.174065      -11.74310       14.07819    
  3.207599      -3.914115      -7.640290    
  2.879133      -11.67961      -5.689843    
  5.151466      -3.805994      -5.829493    
  9.881291      -12.24400       13.37994    
  7.529655      -7.902362      -8.723919    
  6.894710      -5.141748      -9.640917    
  5.446914      -8.795423      -4.543899    
  9.394583      -5.065744      -12.27833    
  8.279774      -2.821763      -9.485774    
  10.47892      -10.45931      -3.520889    
  11.83586      -3.714168      -4.022056    
 -10.12110      -9.009833       12.98840    
  10.50097      -7.957242      -8.716929    
 -9.080696      -7.755182      -5.523821    
  9.044019      -12.61252      -4.038503    
  10.13058      -3.820601      -8.115757    
  11.83160      -7.482182      -6.415257    
  7.733324      -4.794137       1.739894    
  10.75975      -12.13151      -5.910425    
 -14.03898      -8.669952      -6.019097    
 -10.91963      -10.25867      -8.521260    
 -12.45718      -5.294980      -9.760081    
 -12.37148      0.2825442      -3.244081    
  13.26359      -5.367494      -10.06461    
  13.57352      -3.344778      -5.716540    
 -11.91706      -2.886487      -11.21207    
 -11.18202      -5.354147      -7.147522    
 -13.97032      -3.568264      -3.001231    
  11.19383      -1.172312      -4.770163    
 -7.937094      -7.492951      -7.747808    
 -5.006054      -2.673475      -8.679039    
 -10.29716      -3.037412      -6.254409    
 -6.463780      -4.220929      -5.071413    
 -5.084445      -1.004551      -6.683773    
 -7.432627      -3.078504      -7.897627    
 -10.36092      -1.251060      -12.72027    
 -3.466400     -0.8926226      -4.547363    
-0.8155804      -2.942418      -11.26204    
 -2.577055      -1.891302      -7.077385    
 -2.571659      -2.932392      -9.265079    
 -4.702328      -9.809606      -4.330041    
  2.311740      -1.917038      -1.353262    
 0.6950468     -7.1783319E-02  -7.207197    
  5.991397      0.5359101      -6.641961    
  4.950078     -0.8253997      -8.578953    
  2.188154      -1.616743      -8.403851    
 -1.169406      -3.762254      -6.351882    
  5.759497      -6.330487      -6.849606    
  7.302526      -3.062039      -4.857599    
  13.95711      -7.056449      -11.54221    
  5.812027      -5.172925      -3.804221    
  5.670009       1.047492      -2.570755    
  7.595144      -7.834962      -5.476912    
  9.669265      -3.242834      -5.756048    
  5.653974      -1.186540      -4.503552    
  11.15892       1.612471      -11.66242    
  5.659854      -2.765562      -10.55065    
 -14.04346      -5.847829      -7.151968    
  11.52594      0.6950275      -6.424026    
  10.35518       2.963841      -6.174987    
  8.496957     -0.9095821      -5.000127    
  9.098628      -2.475478      -2.992728    
 -8.781286      0.9099593      -6.780388    
 -10.46202      0.9903597      -8.839450    
 -12.88524      -1.624968      -5.263080    
 -11.66243       4.815915      -8.576081    
  12.47069       6.398462      -7.719151    
  10.51089       1.627774      -8.553297    
 -5.935173       1.833822      -7.256065    
 -9.063796       1.556404      -2.989011    
 -9.170480      -1.443639      -7.604494    
 -6.276505       4.321781      -12.11969    
 -11.39073     -0.8222532      -7.260139    
 -8.354111      -2.083377      -2.730419    
 -12.74886     -0.5980433      -9.527497    
 -3.656369       1.614709      -8.987227    
 0.4943883       1.767770      -10.25819    
 -5.716123       2.802146      -10.23890    
 -4.370740       1.761786      -5.051729    
 -4.454505       4.259443      -8.463581    
 -1.093200       3.061817      -5.001212    
 0.8021566      0.5726751      -12.48274    
 -1.548398       3.049249      -9.852257    
  3.221531      0.3775177      -7.145636    
  4.884327       7.125511      -8.339880    
  3.954932      -1.789215      -6.385894    
-0.6585124      0.5085447      -4.202364    
  2.393593      0.3937215      -9.883879    
  1.705715       1.556983      -5.470689    
  4.604812       2.505621      -7.163909    
  8.225991       2.730070      -2.174712    
  9.947026      -2.681650      -11.55125    
  6.967581       3.714026      -9.014438    
  7.598057      0.5456557      -8.568120    
  7.435322       1.315866      -4.540694    
  1.530156       6.940598      -6.451286    
  8.476811       5.680455      -6.412052    
  10.83372       5.275606      -6.135031    
  11.64486       4.086360      -8.030671    
  13.23673       4.700639      -3.059993    
  11.26210      -2.035986      -9.394068    
  13.17423       2.327661      -7.306161    
 -11.79059       11.23920      -11.45011    
  11.81613       12.68788      -7.005342    
 -12.05367       11.97025      -4.996223    
 -7.806615       4.941852      -10.42091    
 -6.516796       9.906784      -9.534067    
 -4.833567       6.502850      -4.270648    
 -7.985540       3.250754      -5.603185    
 -12.12744       9.418856      -6.663710    
 -7.998385       10.48028      -5.089527    
 -9.809506       3.389136      -7.442494    
 -7.234390       9.297502      -7.222434    
 -6.174092       6.765871      -6.432490    
 -7.072039       4.443797      -7.893376    
 -9.046099       3.313019      -12.16462    
 -2.730620       10.88264      -11.09104    
 -4.378346       11.13798      -9.317512    
 -1.336489       5.693433      -5.696719    
 -3.027806       3.021035      -6.775800    
 -6.588304       9.421616       1.307915    
 -7.022929       7.980138      -3.662285    
 -10.51692       5.521492      -10.98712    
-0.5241548       5.407471      -10.08400    
  1.341416       6.749608      -9.141878    
  9.070352       9.046306      -6.162083    
  2.096159       4.282372      -9.888494    
-0.8771255       7.186522      -7.935297    
-0.5221795       2.341203      -7.615433    
  7.176958       6.109945      -8.458579    
  4.079021       7.560112      -5.964155    
  5.601631       5.115707      -6.305170    
  8.655843       9.044499      -3.845474    
  8.692168       2.516035      -10.35272    
  9.710638       6.709955      -4.572469    
  9.285086       4.415470      -8.422703    
  4.811147       4.682408      -9.193976    
  9.945807       9.275872      -12.10415    
  6.206753       3.456640      -13.54392    
  11.55064       9.665627      -7.015711    
 -13.72263       9.159142      -11.05359    
  3.914714       2.446255      -9.591200    
  4.842649       12.50623      -4.480293    
 -10.31425       3.077578      -4.655940    
  7.657224       4.969595      -11.18745    
 -12.81740       9.307982      -3.949363    
  14.02985       8.732446      -8.215526    
 -8.751003       11.39118      -9.060851    
 -12.36319      -13.49589      -4.708485    
 -9.588411       12.91604      -12.28972    
 -12.03176       13.42516      -12.73973    
 -7.969976       13.03851      -6.009975    
  11.08994       8.902472      -4.303394    
 -4.059212       12.79472      -6.968611    
 -5.926723      -13.79396      -7.180565    
 -10.46363       7.295989      -7.383623    
 -7.872615       13.98893      -9.057434    
 -2.575118       10.15592      -6.963711    
 -6.597656       8.676255      -1.233093    
 0.4884825       9.092758      -7.427167    
-0.9257749      -13.65512      -8.263257    
  1.706222       9.305850      -9.859117    
 -2.346460       6.612187      -3.271956    
  3.846054      -11.31614      -9.270358    
 -2.821716       7.514373      -5.946618    
 0.1583475       10.02000      -3.097322    
  6.031470       13.90779      -9.677536    
-0.3404893       10.78389      -5.284418    
 0.3294478       11.55713      -7.625431    
  6.388387       9.249755      -10.32587    
  7.118374       10.53827      -6.481525    
  6.198475       8.931826      -3.683039    
  4.145649       11.23611      -10.02759    
  8.944590       7.371047      -10.21799    
  7.314050       13.40317      -7.286513    
 -9.668910       9.698934      -7.040912    
  13.42739       10.87143      -9.223308    
  11.19707       11.36627      -9.131348    
 -13.56859      -9.000913      -1.282005    
  12.77588      -5.511634      -2.191683    
  11.64119      -12.04387       4.307146    
 -8.644698      -13.06032      -2.398918    
  12.19268       11.23067      -4.711346    
  13.48004      -10.73208      -4.618000    
 -12.29385      -10.77335      -3.235968    
 -5.070854      -12.52640     -0.6179388    
 -5.996985      -13.53385      -2.622391    
  13.76160      -13.89333      0.8120471    
 -4.356419       8.409078      -2.624640    
 -12.30435      -11.59697      -6.491179    
 -3.992709      -7.603098      -1.242263    
 -9.113848      -13.47888       1.453722    
 -3.206348      -10.31529     -7.6750457E-02
 -5.674085       13.45280      -10.14470    
 -1.796375      -12.71476      -4.014039    
 -5.645234       11.43948      -5.496109    
-0.9336237      -9.211675      -6.319581    
  2.204575      -6.392578       1.136221    
  2.752375      -13.82466      -4.459836    
  9.805167      -10.12576      0.1753914    
  8.139202      -12.31285      -6.474212    
  9.192794      -8.480616      -2.398309    
  1.670856      -12.97183      -1.233932    
  4.623541      -7.138186      -2.766695    
  5.585638      -11.90055       1.169591    
  4.640743      -10.31742     -0.6873760    
  1.562212       12.27276      -3.823613    
  8.505590       11.99040     -0.1754180    
  2.663610       13.39556      0.6678512    
  7.162216       14.09893      -4.745178    
  7.303982      -10.63661     -0.5218599    
  2.866537       12.54744      -6.157278    
  7.232691      -9.637030      -11.07839    
 -10.16478      -6.672029      -1.102679    
 -11.01944       12.46725       1.321628    
  9.383765      -9.612571      -7.042825    
  6.966238      -12.24516      -2.799127    
 -13.33472      -11.87234     -0.5651856    
 -7.317070      -11.78130      -7.664574    
 -9.598165      -4.282664      -1.755834    
 -12.18048      -3.492965       1.246975    
 -12.45552      -4.331306      -5.116039    
  11.93890     -0.6648540       2.845961    
 -13.07083      -8.039887       3.165187    
 -12.97183      -8.108689      -3.625849    
 -7.381131      -12.53364      -4.968295    
 -4.194653      -6.189986      -6.216938    
 -6.472957       11.09129     -0.8021476    
 -7.071694      -11.86172       2.800521    
 -3.436794      -9.402273       2.231271    
 -7.552446      -9.356518       2.149364    
 -7.957423      -9.478810      -4.187762    
 -6.822210      -7.245708       1.448641    
 -2.658007      -9.262468      -2.328208    
 -5.334249      -8.931648      0.6869160    
 2.0773299E-03  -4.158042      -4.378565    
 -3.517645       14.07687      -2.956421    
 -4.091991      -3.556275      -5.823390    
 -1.687082      -6.347968      -2.247306    
 -4.210330      -6.582926       1.263857    
 -5.981336      -8.167902      -2.968604    
-0.1667543      -6.610538      -4.322336    
  1.849449      -4.272384      -2.543812    
  2.029610      -6.664328      -3.024692    
 0.6237165      -6.007269      -1.010468    
 1.0273112E-02  -8.149191      -2.445121    
 -2.497457      -5.463418      -4.587310    
  1.160594      -4.039796      0.3604965    
  3.956448      -6.583212       2.997790    
  5.850370      -5.493136      -1.383346    
  6.166676      -6.873828       1.603648    
  4.726871      -7.626055     -0.2853492    
  6.331222      -9.011265      -2.242552    
  3.667873      -6.795428      -4.981030    
  8.255706      -5.320066      -4.804742    
  9.986028       11.15354      -2.605829    
  12.42279      -8.257060      -3.451412    
  7.265678      -6.981495      -3.060260    
 -13.25764      0.6392269      -7.458160    
 -12.17999      -7.325857      0.4278110    
 -9.095397      -10.29238      -6.543999    
  12.84289      -10.77402      -2.064291    
  7.813600      -6.833169     -0.4915645    
  8.166313      -4.816203      -2.178772    
 -7.927114      -8.758248     -0.9665360    
  13.41858      -1.451271      -3.839393    
 -12.06986      -6.848750      -5.372896    
 -11.59932      -1.721064     -0.9042686    
 -12.24572       2.966826     -5.8251411E-02
  13.76546      0.5782282       6.353851    
 -9.805464     -0.2411013      -1.549342    
 -10.00782     -0.5150685      -4.647818    
 -8.122301      -6.415397      -3.113320    
 -9.822475      -3.634526       2.270460    
 -7.084476      -4.090078      -2.266641    
 -9.395691      -10.63912      -2.386214    
 -6.038377      -6.160449      -1.121182    
 -11.18875      -2.607774      -3.195409    
 -9.010525      -4.034204      -4.204900    
 -4.810990      -3.475347      -2.976765    
-0.6138700      -3.560862      -1.681997    
-0.7724855      -1.603299      -5.463009    
 -2.990773      -4.542738      -7.675480    
 -5.166419      -5.898779      -3.596375    
 -3.630433      -5.126782      -1.791438    
 -2.251249      -3.317681      -3.820530    
  4.991411      -1.242858      -1.529212    
  1.207052      0.5345127      -2.336319    
 -2.004709      -1.066933      -2.265046    
  1.968772     -0.9406699      -5.445505    
  4.261740      -3.414102      -2.700479    
 -3.156575      -2.914679     -0.5230588    
  4.084258      -3.021193      0.3313708    
  7.449332     -0.6049978      -2.693557    
  11.33501      -5.111895      -5.949987    
  2.636254      -3.642958      -4.844390    
  10.56427      -6.130955      -3.667096    
  10.67710      -4.394908      -1.705307    
  9.792109     -4.4731472E-02  -1.633800    
  11.40813      -4.287725      -10.85265    
  12.54318      -3.773388      -7.906556    
 -13.12986       3.008733      -4.523647    
  11.86490      -1.963304      -1.976217    
 -13.24066      -6.273661      -1.971670    
 -11.51910       1.415662      -6.015597    
 -9.688606       4.487339      0.1807263    
 -13.25954       6.907323      0.4985416    
 -10.40379       3.190889      -10.03364    
  12.67716       2.691014      -4.698483    
 -8.873897       3.942903      -2.363439    
 -7.120917     -0.2623867      -1.767150    
 -4.643788     -0.9757817      -1.891177    
 -7.426037       2.052160      -1.166079    
  13.81117      0.5863658      -5.221760    
 -7.113304      0.6287174      -4.539566    
 -1.194924       1.541217      -1.368766    
 -3.006730       1.797117      -3.170694    
 -5.967998      -1.697495      -4.003425    
 -8.432504       6.659142      -1.559092    
-0.5170975       3.895144     -2.0083725E-02
 -1.968916      0.3585844      -6.553022    
 -3.433957       4.277335      -4.146410    
 -5.406588       1.203910      -2.761067    
 0.6323521       5.432444      -1.439573    
  4.155565       3.256058     -0.1795822    
 0.5659990      -1.822496      -3.481431    
  5.432735       3.083006      -4.466621    
 0.7832386       2.797677      -3.219775    
  3.374757     -0.4426021      -3.234839    
  2.145825       6.909708      -3.816123    
  9.078629       7.237978      -2.180823    
  4.172395      0.8853962      -5.068048    
  6.576204      -2.802482      -2.681909    
  6.709470       4.577495      5.1083107E-02
  3.447481       2.220681      -2.955700    
  10.57118       3.916047      -3.413493    
  9.393945       4.956256     -0.8931431    
  13.37645       4.517155      -6.057693    
  11.39292       6.519289      -2.756862    
  11.27686       1.399559      0.2895747    
  7.924462       4.188072      -4.634078    
  9.784951      -1.011210      -7.531057    
  13.42431       8.040817      -2.941854    
 -13.27171       6.560016      -6.713368    
 -13.81522       2.714996      -2.142863    
 -12.67801       5.725266      -3.971092    
 -8.786822       9.410426     -0.2968720    
 -14.07811       11.26628      -6.913434    
  13.70495       2.173482      0.1099418    
  12.58252       6.670562      -5.041866    
 -8.509488       5.489671      -6.227993    
 -10.91857       5.155609      -6.059896    
 -6.940532       2.881941      -3.605453    
 -11.36093       2.630347      -2.375435    
 -8.545649       9.872190      -2.694596    
 -10.52148       8.264027      -2.404191    
 -8.238111       2.922013       1.550544    
  12.76378       5.710469       1.435169    
 -1.540237       6.044588     -0.8159679    
 -7.373810       5.497083      -4.027387    
 -3.799451       5.457556      -6.384045    
 -4.318235       9.088610      2.7629927E-02
-0.2449665       8.094452      -4.992774    
 -8.693947       7.806824      -5.549469    
 -5.708364       4.210995      -5.466158    
  2.811793       4.076525      -5.346142    
-2.4804046E-02   7.517841      -2.580736    
  2.414599       9.352534      0.3332020    
  7.346214       6.641087      -4.261103    
  2.250239       7.128602     -0.6970482    
 0.6109403       13.00970      -1.039719    
-0.6222091       7.896309      -10.88051    
  6.619352       7.851804      -1.221715    
  7.639822       9.663832       2.546875    
  2.667309       4.624050      -2.430135    
 0.1585589       5.225070      -3.812001    
  7.317408       10.22704      -1.983926    
  4.026331       8.254877      -3.483310    
  7.356129       2.821681      -6.870081    
  3.935457       11.28341     -9.6254468E-02
  7.408093       5.472476      -2.173135    
  4.883754       5.878220      -3.762676    
  10.32807       5.219547       1.537834    
  13.67238       8.985143      -5.524521    
  5.616157       3.494529      -2.001842    
  9.254401       3.228570      0.6845111    
 -9.250169       5.738830      -8.643399    
 -10.78179       10.09118       1.872421    
  10.69070       6.870242     -0.2565677    
  6.476838       2.325406      0.6264575    
 -13.50861       12.74413       2.683240    
 -5.289937       13.68313      -4.783733    
  13.90882       12.84009      -5.048106    
  11.29479       8.765798      -1.669119    
 -12.65988       14.03292      -10.34862    
 -13.12385       10.97566      0.6443568    
  7.980351      -10.29537      -4.417320    
  12.00162       11.86309       3.909126    
 -2.559442      -12.59651      0.3281549    
 -10.19038       13.51834     -0.9112192    
 -7.660832       12.57006      -3.046395    
 -1.239259       12.40048      -3.149833    
 -6.117984       10.18055      -3.187765    
 -7.359386       13.95199     -0.6360748    
 -11.32098       7.613339      -5.007359    
 -8.562350       11.96555      0.5314074    
 -10.34101       9.803724      -4.647840    
 -13.42999       8.191760       4.764726    
 -4.973308       12.15789      -2.956846    
 -3.408706       11.79261      -4.671096    
 -6.024400       6.499087      -2.166755    
 -6.345386       6.685921      0.3856725    
 -3.335365       10.92134      -1.604302    
 0.8007372       14.08310      -6.146029    
  2.298183       9.825860      -5.358920    
  2.059296       8.903171      -2.350350    
  4.964619      -13.56001      -3.409515    
  1.817386       10.94918      -1.369825    
  4.367868       9.011441      -1.265628    
  3.887069       10.70999      -3.039979    
  7.243593       11.46715      -4.105531    
 -2.362069       9.647109      -3.913388    
 0.5355567      -13.67773      -3.580637    
 -1.603563       12.87152      -6.085687    
  5.241152       12.04256      -7.014159    
 -13.97747      -11.79680       2.851335    
  5.262737       9.117682       4.771143    
  9.003379       9.166117     -3.3121124E-02
  9.091923      -12.31416       3.567718    
  12.82430       10.45540      -2.482941    
  7.210297      -13.33315     -0.2573847    
 -13.36489       13.41719      -2.923068    
  13.27919      -12.33522       6.545524    
  8.639034       13.68168      -2.478794    
  13.99376      -12.70367      -3.188341    
  9.772919      -14.12835      -7.275314    
  11.29188      -7.757358      -11.05874    
  12.26039       13.03099      -2.954964    
 -13.01511       11.01083      -1.950660    
 -10.34914       12.11805      -7.221929    
  13.48389      -13.20109      -5.559443    
  11.35201      -12.42374       1.350841    
 -9.554090       12.27852       3.185896    
  11.26859      -8.021722       1.198713    
 -8.877578      -8.126483       3.904047    
 -11.92037      -4.187549      -1.183300    
 -12.24863      -11.99638       5.679352    
 -3.598818      -10.97260       4.522897    
 -6.932076       12.04740       2.358065    
 -7.239388      -12.27438       5.379275    
 -6.328108      -13.75256       1.461820    
 -9.430490      -10.28274      0.9225595    
 -3.857708      -9.441233       12.58347    
 -8.440004       10.20076       3.073824    
 -13.65426      -13.42265       8.694311    
 -9.342082      -7.445108       1.351184    
 0.2039784      -13.16527       1.263050    
 -1.098180      -10.08296       1.702389    
  2.979744      -8.908852      -2.417374    
 -1.008201      -9.182788       6.657980    
 -2.293113       12.96782      2.0909144E-02
 -4.720356       11.45697       1.403732    
 -2.309786      -12.09939       2.802755    
  2.056695      -9.356292       4.433678    
 0.4680517      -8.063759       2.223920    
 -2.926438      -14.03260       4.572925    
  3.179939      -8.666296       1.653722    
  4.642685      -12.92629      -1.134651    
  5.417860      -11.26932       7.127430    
  3.399624      -13.71081       5.652658    
  8.477377      -7.877325       4.869465    
  5.751257      -9.370342       1.422239    
  1.726450       13.37375       3.106976    
  6.042673       11.50085       3.555917    
  11.33609      -9.101914      -1.227343    
  10.63168       13.41769     -0.7850919    
  10.54708      -6.800346      -1.145208    
  12.55696      -13.32873      -1.207940    
 -13.68003       13.97198       5.265712    
  13.69049      -2.998121       2.690662    
 -10.94628      -9.044101       2.394420    
 -11.41057      -11.35710       1.887593    
  13.52488      -3.238880     -0.2477879    
 -10.96017      -5.743666      -3.325714    
 -13.38473     -0.3193453       3.759959    
 -1.895781      -7.053309       3.248089    
 -7.995394      -4.952513      0.6090835    
 -8.840656      -5.676876       3.183777    
 -12.73313      -5.843719       2.362729    
 -2.933413      -10.96995       6.833964    
 -7.509574      -9.730571       5.195910    
-4.4847347E-02  -11.40212       3.402485    
 -3.951327      -4.039393       1.847585    
 -2.145612      -5.262591      6.7946650E-02
 -4.101120      -5.762378       3.920466    
  1.326554      -10.46971       1.543498    
-0.7392077      -4.876624       5.514414    
 -11.11347      -9.479795     -0.6489963    
 -3.934474      -8.521601       4.986991    
 -1.605396      -7.890149      0.1038534    
-0.2745351      -5.526758       1.556582    
  4.824299      -5.114817      0.9777359    
  8.691393      -5.779864       6.079076    
  1.164413      -5.731012       3.429098    
  4.604689      -4.391159       4.278236    
  2.683423      -6.186748       5.693341    
  10.95792      -6.926533       3.903798    
  9.856235      -5.891519       1.078061    
  2.343076      -10.62638     -0.8672362    
  11.66475      -9.789211      -5.846100    
  9.440810      -3.193203      8.0958143E-02
  6.165417      -4.736427       6.387904    
  5.292798      -7.194235       5.358316    
  6.580525      -3.432199     -0.2753024    
  6.636723      -8.194694       3.510115    
  9.909851      -8.302361      -4.925203    
 -13.89139      -1.408263      -1.567612    
  4.599139       13.25080       9.617595    
  9.423474      -4.643624       3.878268    
  13.03323      -7.362878     -0.5136411    
  11.46236      -12.93583      -3.540476    
  12.88266      -10.04212      0.5173035    
  12.00665      -7.559752       9.165039    
 -13.32142      -1.219726       1.157200    
  12.82398      -1.301181       4.998443    
 -11.89336      -2.224765       3.252839    
 -9.800168      -5.599847       5.541243    
 -11.87555       1.773520       4.473345    
 -6.804537      -2.756302       1.680122    
 -12.22252       1.014377       1.952633    
 -9.537053      -3.333548       4.715023    
 -10.67535      -5.455367      0.9266392    
 -5.358895      -4.049526     -2.3860218E-02
 -9.092855      -2.492846      5.5226002E-02
 -6.254386      -1.229026       3.667592    
 -5.292654      -1.708380      0.3141987    
 -2.854468      0.3455853       3.639026    
 -1.400171      -3.268161       1.181796    
 -2.062584      -4.148664       3.391913    
  2.821862      -3.996637       2.412519    
 -1.091217     -0.9899438       2.203874    
 -6.291098      -7.599154       3.970626    
 -3.525440      -1.879824       2.813869    
  3.252024      -1.765910       3.434389    
  5.412589      -2.802672       2.323228    
 0.3013786      -3.216520       2.899170    
  3.340721      -5.539380      -1.060342    
  1.559986      -1.685855       1.448816    
-0.2333974      -1.101585     -0.5138874    
  7.768794      -1.715012       1.621356    
  8.586209      -8.154965       1.870515    
  10.48400      -1.323323       1.059348    
  7.238070      -5.834765       4.107122    
  2.024819      0.4284802       2.890128    
  8.396336      0.1036681       3.768162    
  9.840994      -2.195765       3.857829    
  3.306924      0.6883897     -0.5595821    
  12.64615      0.8117617      -2.395983    
  10.23196      -8.080791       6.933846    
  12.04754      -5.195641      0.1714859    
  10.55420     -3.8441271E-02   4.973838    
  11.01648      -3.981407       2.166191    
 -9.014632       3.750925       4.513808    
 -13.57703       3.406011       2.722928    
  12.99118       6.644022     -0.9220150    
 -12.19076     -0.2177061       6.209450    
 -11.66182       4.247884       5.371005    
 -12.79189       7.258500       7.214805    
  12.65328     -0.6523197      0.2775541    
  12.33419       1.698853       4.223435    
 -7.361156       4.642350     -0.4976166    
 -10.04847       2.083378     -0.3890375    
 -5.792055       3.014669      0.7486089    
 -11.14325       9.524105       4.766954    
 -10.87271       3.055239       2.076625    
 -8.663200      -1.688001       2.838389    
 -12.51055      0.5432029     -0.4511001    
 -4.823612      0.3900064       1.858675    
 -4.107835       2.834731       2.976616    
 -2.665986     -0.5958681      0.2333552    
 -2.151693       3.983388      -2.134938    
 -7.457233     -0.1247786      0.8100823    
 -3.968944       1.372440     -0.7094933    
 4.9143039E-02   3.621210       4.522476    
 -2.130454       1.369860       1.398249    
  1.988730       5.316606       3.445582    
  1.007581       3.161542       1.953419    
-0.5620135       1.265016       3.319331    
  1.660665       2.663387     -0.7760336    
 0.5022348       1.062093      0.9266650    
 0.3605945      -1.109285       4.420554    
  2.818573       2.637494       3.737956    
  10.15806       2.256802       5.600275    
  4.259395       1.667107       1.612576    
  7.124951       1.772701       5.373373    
  4.105466     -0.8124202       1.268089    
  11.88696       3.180629       1.829958    
  6.877420     -3.0503869E-02 -0.4186451    
  8.043818       2.518634       2.985125    
  5.466073       4.697417       6.950959    
  11.83259       6.804226       4.054477    
  10.42034       1.441972       2.769141    
  12.60616       4.354461       3.920632    
  8.997301      0.8432745      0.9513965    
 -11.31103       5.168350      -1.527463    
  9.364466       7.356013       2.405698    
  10.24466       1.232866      -4.166763    
  13.94636       11.03172       5.861906    
 -11.41005       6.855197       5.009879    
  12.93521       10.78187       1.777092    
  12.56497       9.307292       10.48957    
 -13.89403       4.722435     -0.5139685    
 -9.887624       5.929460      -3.879993    
 -10.19205       7.148728      0.7229737    
 -5.126093       5.119782       1.919450    
 -12.88121       7.149108      -1.891822    
 -12.12237       8.956133     -0.3518031    
 -3.105346       3.789154      0.1676300    
 -5.479201       5.766368       4.194509    
 -4.630871       7.748518       2.441915    
 -5.049921       3.964825      -1.861302    
-0.6756253       5.806996       3.187934    
 -3.877184       6.462880     -0.8511102    
-0.6002854       11.79311       4.084407    
 0.2186014       6.311870       1.034276    
-0.6670111       10.58781     -0.8425339    
-0.2172596       7.728026       4.395587    
 0.3361545       9.468915       2.335901    
  2.278394       7.429524       1.784445    
  6.491980       4.114139       4.174474    
  6.229350       10.10685      0.2194068    
  2.478458       4.783190      0.6177932    
  4.647462       5.881465      -1.130520    
  8.114467       6.557550      0.2603733    
  4.267714       6.863488       3.289764    
  4.927143       4.650117       1.974930    
  10.13941       3.994047       3.745128    
  11.61605       3.859480     -0.7693332    
  11.32470       10.82440     -0.1127529    
 -11.98652       5.034762       1.064581    
  13.49590       9.271193     -0.4099381    
  8.838900       11.07551       4.565814    
  11.42516       8.807304       1.618330    
  7.897270       4.972126       2.215255    
 -9.647335       7.833447       3.467166    
 -7.897906       5.598852       2.520010    
 -12.65156       13.10172     -0.5996913    
 -4.970997      -12.65191       3.749016    
 -12.06320      -13.68362       1.169551    
  7.152970      -12.35369       5.484828    
 -6.717047       11.87107       9.025236    
  9.254524       10.93481       7.303818    
  11.80651       13.01652       1.345441    
 -10.37997       11.59141      -2.817511    
 -9.574875      -11.21572       4.093221    
 -7.446470       11.72036       4.677666    
 -6.322283      -12.24278       7.892434    
 -2.068916       8.574235      -1.603660    
 -3.212475      -11.59799      -2.196573    
 -5.272923       12.95053       3.862843    
 -5.035191       13.28931     -0.7227676    
 -1.696970       13.76923       2.394428    
 0.1825172       8.347865     -0.3196176    
  4.045392      -13.62936       2.652079    
 -2.169988       13.51247       9.909049    
-0.3839533      -11.38125      -9.582414    
 -1.186881      -13.40210      -1.660106    
 -8.182657       9.249600       5.691933    
  1.410819      -8.266667     -0.4018753    
 -5.186533       10.04783       4.261175    
  6.056623       12.65021      -1.712376    
 -2.339787       10.60944      0.9427121    
  3.888048      -10.84501       2.550879    
  5.626855       13.64212       7.178581    
  1.598642      -11.23337      -3.252513    
-0.1020114       12.07536       1.415761    
  3.221698       13.30270      -2.285722    
 -10.80976       11.04780     -0.4900803    
  2.161505       10.81910       4.269966    
  3.056922      -12.27286      0.8482834    
  5.629049       13.13066       1.280166    
  4.611077       7.831570      0.9267811    
  4.631028      -11.57862       4.779264    
  7.973718       12.28675       2.336872    
  10.05087       12.78773       5.864221    
  9.149005      -14.09043       1.300884    
  13.19124       12.26804     -0.6935851    
  9.238703       11.64703      -7.647680    
  6.596970       7.258485       2.562063    
 -9.553135      -8.541853       8.217108    
 -10.82525      -6.933702       3.753145    
 -12.00235       8.002741       2.643815    
  12.87556      -9.323141       7.440562    
  12.82440      -9.021104       2.876148    
 -11.43459      -10.05169       9.930405    
 -3.839830      -5.243750       7.929522    
 -7.926506      -10.54621       7.555956    
 -3.013623       11.97578       3.008918    
 -3.199951       13.44087       7.289606    
 -9.438177      -12.88932       6.525148    
  1.411120      -9.941904       7.674687    
 -9.699573       14.12252       11.29616    
-0.2514426      -13.66870       4.405112    
 -1.266765      -13.08399       6.955824    
  1.456886      -11.82922       9.197771    
 -2.786767      -10.70263       10.18699    
  1.050692      -6.562174       12.09970    
  4.640659      -9.173581       3.988053    
  2.902337      -11.42017       6.500564    
  9.624969      -13.03466       5.859314    
  2.198580      -12.25731       3.795953    
  2.201027       13.88764       9.954933    
  5.141993      -9.696833       11.71130    
  10.35359       11.78798       9.975055    
  5.708961      -8.966213       8.320638    
  6.624986      -9.444980       5.867018    
  5.408494       13.99538       4.449358    
  8.013643      -12.33065       7.930509    
  3.639749      -8.994255       6.833505    
  8.286218      -9.701918       8.350851    
  10.40708      -10.07775       2.813540    
  2.224224      -13.61924       12.48839    
  13.11157       11.64078       9.454155    
  7.272949      -7.223262       7.453937    
  10.85417      -11.07072       7.065519    
 -9.933542      -6.500492      -11.49678    
  14.11392      -6.935908       7.828980    
 -8.274963      -7.609194       6.387248    
  13.22972      -7.495744       5.543546    
 -13.35704      -10.81990       8.107580    
 -8.184537      -6.965712       12.61821    
 -12.64976      -6.488206       5.667907    
 -6.829949      -5.653260       8.146565    
 -5.366238      -10.71603       6.048770    
 -9.726820      -7.200626       10.23078    
 -13.25747      -1.781217       7.803324    
 -4.967197      -10.01598       8.358620    
 -2.661278      -6.369981       5.830086    
 -4.965932      -7.403187       8.625897    
 0.3904617      -11.23246       5.847260    
-5.0817728E-02  -6.317454       9.859071    
 -1.360624      -9.626485       4.191576    
 -4.122610      -2.836426       8.582989    
 2.6303075E-02  -7.318749       5.395971    
  2.452942      -5.417757       9.295996    
 -3.515292      -8.582666      -13.59183    
-0.2387772      -10.58653       10.64901    
  1.711452      -3.551640       4.999199    
  3.183946      -7.395738      -12.04057    
  3.943015      -7.854218       9.488387    
  1.213855      -7.552331       7.798943    
  8.854194      -3.259937       6.452039    
  6.218469      -2.458804       7.333105    
  7.411662      -4.843573       8.532913    
  5.062950      -4.248575       8.950400    
  11.80746      -3.726335       4.808483    
  7.006873      -10.77375       3.282406    
  7.155294      -2.894189       4.183279    
 -13.07689      -5.640517       9.857430    
 -13.05788      -9.567852       1.174852    
  11.66656      -9.542187       5.121899    
 -11.55826      -4.532839       3.978867    
  11.28198      -5.468871       6.589830    
  9.147934      -10.29415       5.205554    
  14.10594      -10.05907       5.136895    
  13.18214      -6.252927       2.246630    
 -11.14813      0.5095249       8.438900    
 -11.46955      -4.222311       13.74233    
 -12.45710      -2.195424      -13.59156    
 -13.77932      -5.392582      0.3056839    
 -11.06881      -4.533382       8.827254    
 -10.64737      -7.734526       6.205907    
 -9.051579     -0.9503696       8.167182    
 -4.480428      -1.280043       5.943047    
 -4.965802      -3.407899       4.120309    
 -7.396459      -5.650840       5.165676    
 -9.969689       1.242005       6.514030    
 -6.557652      -4.241405       12.82971    
 -11.54406      -9.389448       4.771768    
 -9.529354      -6.028648       7.873231    
 -7.731315      -1.541868       5.959159    
 -5.052553      -6.325524       6.207388    
 -10.39719      -1.054072       4.944979    
 -6.250945      -5.059299       2.649460    
 -1.735500      -4.030917       8.353738    
 -1.913925      -2.164376       4.905880    
  1.556583      -2.648321       8.432185    
 -2.399076      -1.464321       7.462503    
-0.3197076      -2.524386       6.792189    
 -3.244627      -3.831407       6.070744    
 -6.077269      -3.670859       6.421701    
  3.556329      0.3952757       4.668218    
 0.6778648      -5.017197       7.442391    
  3.398213      -3.869937       7.019862    
  2.234410      -1.234802       6.185802    
  2.650074       1.233685       6.972223    
  7.316290       2.175590       9.713139    
  5.854532     -0.6985081       3.552327    
  4.740456      -2.125077       5.369617    
 -13.26045      -4.514192       7.462628    
  9.271124      -3.748536       10.87948    
  3.944774      -1.500916       8.133243    
  7.912254      -2.330213       9.182111    
  9.292074     -0.5601099       7.826668    
  10.29937      -1.522358       9.847360    
  11.30355      -3.637477      -13.29774    
  11.13486      -1.769747       6.493044    
  13.98949      -5.202256       4.458174    
 -10.72242       5.445323       3.118612    
  10.89007      -3.457066       8.605322    
  7.648697     -0.6361178       6.053951    
  12.57959      -1.323012       8.542006    
 -12.11719       9.771824       6.984489    
 -7.314530      -3.464617       4.138326    
 -8.589537      -3.670315       7.073481    
 -14.13176       5.801345       5.485123    
 -10.82102       3.401115       7.825742    
 -11.28545       5.823407       9.043200    
 -10.75795     -0.8344815       1.361344    
 -9.399841      0.9891638       3.345438    
 -4.345819       3.857147       5.601026    
 -8.414540       6.524403       5.287001    
 -6.866637       1.436444       2.937604    
 -4.687889       1.366636       9.371787    
 -2.953645       5.300743       3.993038    
 -11.10770      -1.707605       9.470396    
 -2.124275       2.505106       4.854066    
 -3.829066       1.154693       6.955639    
 -1.904285       4.692591       6.057479    
 -3.271928       3.452923       7.817362    
 -1.749328      0.2209896       5.730647    
 0.1972243      5.8997341E-02   7.450061    
-0.9278583      -1.717984       9.325929    
 -5.720962       1.616404       5.244186    
 -7.301945       2.487376       9.465705    
  1.680662       5.699603       7.983717    
 0.9528968       1.300519       5.199304    
 0.4281310       5.757170       5.784879    
  3.907467       6.074485       8.458305    
  5.479244       1.892382       3.634974    
  1.995167       3.811515       6.306693    
 0.2911105       4.931249       10.93886    
  5.941295       2.221568       7.715685    
  4.376953       2.549547       5.819842    
  10.76585       5.089956       8.430339    
  5.157173      0.2110546       6.354199    
  4.245416       4.748948       4.636974    
  11.52459       4.564258       6.113826    
  10.14644       4.467246       10.74525    
  8.273900       3.872882       5.885635    
  13.51045      0.9219449       2.146283    
  11.35770      0.7514216       7.041632    
 -13.79995      0.4308905       8.774551    
  10.21042       2.687616       8.256226    
 -13.08825       4.606417       7.580720    
 -10.11681       5.525892       6.848996    
 -9.993625       9.578928       10.89665    
  11.48750       7.415591       8.725750    
 -11.64070       8.533582       9.256041    
  13.79695       8.142867       2.130921    
 -13.31318       10.52893       10.42486    
 -8.174964       7.024467       7.785652    
 -7.855784       11.40947       6.927446    
 -10.27283       8.093518       6.854562    
 -6.562942       3.552879       3.744509    
 -6.690342       4.813064       6.126783    
 -2.702728       5.875505       1.579506    
 -12.52782       2.453684       9.286149    
 -13.34495       6.048499       3.168121    
 -6.082419       9.669161       7.632152    
 -7.051198       7.949191       3.643417    
-0.8098307       2.480153       6.788817    
 -1.356624       3.527834       2.394219    
  1.438184      -13.48488       7.008283    
 -5.313061       7.318970       8.814240    
  3.910229       10.44560       9.673767    
  7.249017       11.97678       6.249126    
  2.449195       8.188541       4.218758    
 -1.597489       7.004786       6.949627    
  4.401871       8.427711       7.623797    
  3.593711       9.625094       2.441536    
 -1.485626       9.583306       5.706969    
 -1.950176       8.159440      0.8484188    
  8.971566       6.250101       12.31518    
  3.193606       10.02826       6.316383    
  7.632441       4.922849       10.63809    
  8.293100       1.502952       7.480604    
  3.586515       6.798176       5.894518    
  6.287915       6.449678       5.293435    
 -1.820718       11.31854       8.207669    
  5.914850       10.50298       11.76885    
  13.05382       2.865561       8.342937    
 -11.63184       13.87547       6.755935    
  10.23439       9.248712       3.740490    
  8.924155       6.012676       4.500338    
  13.01427       8.212798       6.495769    
  11.02233       5.542826       13.83454    
 -13.24786       10.17334       3.091248    
 -11.77289       6.834743       11.29059    
  10.85077      -9.807776       9.052212    
 -10.01730       10.78279       6.538078    
  12.63753       9.392611       4.088682    
  10.39409       13.90128       3.600206    
 -3.077472       11.62871       5.443264    
 -5.131339       11.59924       12.50704    
 -4.305769       11.43753       8.507541    
 -5.563972      -10.05808       3.501021    
 -7.259428       12.92438       11.74165    
 -5.935169       7.470779       6.125410    
  11.94346       12.50292       7.494342    
 -5.605892       12.15067       6.409369    
 -5.101605      -13.25009       6.083823    
  1.289031       8.165404       6.779869    
-0.8568946      -11.04895       8.301780    
 -9.037850       12.07242       10.09589    
 0.6346071       10.90005       6.638864    
 -3.481387       9.204033       7.578173    
 -3.514445       7.712827       5.253209    
 -4.776959       12.98251       10.53905    
  4.281058       12.00109       5.254941    
  1.388999       12.90153       5.460902    
  3.807586       12.15331       2.667937    
 -1.014548       12.85300       6.256848    
 3.5351131E-02   13.31586       11.67442    
 -4.045949       14.13139       1.871724    
 -2.802720       6.060678       9.289869    
  2.886811       12.37051       7.682056    
  8.441456      -11.68906       1.393145    
  1.049429       10.15998       9.138151    
  8.035866       13.61285       4.525481    
  8.131279       8.340460       4.813962    
  4.848694       13.91762       13.82866    
  2.552888      -11.00712       11.51191    
  10.48535       13.12138       12.82781    
  11.20915      -13.44862       7.628979    
  12.15083       13.88028       5.493490    
  12.76000      -14.02048       3.235689    
  6.503638       9.222745       9.573080    
 -11.73684       11.97776       5.129460    
  9.732491      -12.40512      -1.315137    
  10.08022       11.10005       2.031812    
  7.034295       9.418482       7.170611    
 -11.87245       13.89124       12.91794    
  12.65469      -11.56769       9.023863    
 -13.98463      -8.670782       12.42360    
 -9.986311      -11.67452       12.14979    
 -12.48525      -10.70365       12.57821    
 -9.968922      -6.211020      -13.97570    
 -5.313996      -9.778572       10.71779    
 -12.87327      -8.746483       6.905285    
 -10.52080      -10.41301       7.093942    
 -7.490780      -13.94273       9.563052    
 -8.856613      -9.432688       10.66375    
 -9.475677      -12.18080       9.458766    
 -8.161132       8.060734       12.26302    
 -6.142613      -12.60058      -13.73482    
 -3.923597      -11.13858      -13.73247    
 0.6337848      -9.533669      -12.85004    
 -3.165198      -12.16792       12.44469    
 -1.619464      -10.25436       13.73880    
 -6.564496      -9.625624      -6.533354    
  3.343740      -9.730132      -13.95622    
 0.9189858       12.62153      -12.42112    
  1.441537       13.41639      -8.445239    
  3.546182      -10.44327       9.070318    
  6.968831      -13.44667       2.597102    
  5.240858      -11.65209      -12.76121    
  3.086547      -7.820678       12.01316    
  3.959758      -12.94116       8.362482    
  2.409307       10.11174      -12.59793    
 -14.03689       9.469469       8.346897    
  6.375173      -13.63518       9.356146    
  7.758404      -9.238288       12.91569    
-0.5944737      -12.50365       12.29966    
  3.866451       12.37765       11.80561    
  9.259059       8.699506       8.280341    
  12.44841      -8.618102      -13.17829    
 -14.04059       8.332274      -13.82198    
  14.12239       12.10632      -11.32789    
  10.37889      -12.09614       9.663042    
  12.17656      -14.13114       9.894679    
 -11.77345      -7.330923       8.543220    
  10.28104      -9.530984       12.53149    
  12.66771      -10.52518       13.45517    
  11.75291       9.955771       8.109696    
  9.011528       13.57475       7.974883    
 -9.188179      3.4192964E-02   10.48528    
  12.62751      -1.749130       13.96297    
 -13.40439       13.09475       10.45141    
 -12.10619      -7.437358       13.73901    
  14.03319      -6.897289      -13.94471    
 -10.94460      -3.196967       6.695849    
  12.77736      -5.205431       8.832672    
 -12.23906      -5.943931      -12.54654    
 -1.357065      -8.287304       11.71941    
 -6.248435      -1.649893       13.14562    
 -6.046996      -8.425802       6.676723    
 -4.244948      -6.250694      -13.16885    
 -12.13333      -3.680989       10.96539    
 -6.006762      -7.444738       10.94835    
 -9.639066      -3.514091       10.44375    
 -7.960967      -5.436449       10.69906    
 -3.511844      -6.361941       12.58868    
 -3.197408      -8.203205       7.361113    
 -5.403873      -8.094945      -12.06288    
 -1.146202      -6.658876       7.627863    
 -2.300901      -13.19089      -13.30964    
 -7.130985      -11.25181       10.02799    
 -2.583862      -6.013913       9.842932    
  4.361111      -5.459131       11.50310    
-0.9799499      -5.292311       11.83580    
  4.509471      -7.347955       13.97774    
  2.906337      -2.648880       10.55186    
  6.435735      -7.243991       12.22913    
 -5.176162      -13.95058       12.78871    
 -1.287417      -8.681221       9.096858    
  1.457202      -8.832603       10.13130    
  2.989248      -6.578920      -7.565886    
  6.712737      -4.140016       10.76954    
  8.207709      -6.103741       10.60496    
  4.705852      -6.380965       7.668944    
  11.26981      -13.10221      -12.39150    
  5.429697      -1.955376       10.19303    
  10.99579      -5.799687       11.20613    
